-0.162680 0.165538 0.632851
-0.064823 0.065843 0.318259
-0.029409 -0.032247 -0.558097
0.033346 0.067623 -0.021274
0.083466 0.229221 -0.145047
0.160440 0.253053 -0.079202
-0.021097 -0.570067 0.259164
0.173434 0.265983 -0.067795
-0.006936 -0.064073 -0.054555
-0.101041 -0.877307 0.227164
0.066963 0.131537 -0.328562
0.270469 0.361345 -0.034851
-0.076945 -0.552805 0.263470
0.039262 0.046565 -0.104579
-0.078370 -0.386557 0.203489
-0.027655 0.059441 0.173804
-0.016225 0.079910 0.193667
0.025396 0.071834 0.065753
0.036734 0.138144 -0.476253
-0.011033 0.041192 0.038368
-0.161039 0.222899 0.633161
0.054896 0.043203 0.091912
-0.023715 -0.081942 -0.031882
0.043302 0.114962 -0.651891
-0.249571 0.255752 0.727101
0.002723 -0.332866 0.172854
0.050565 0.033957 0.039423
0.015083 0.006947 -0.575747
-0.059747 -0.370479 0.195619
-0.177930 0.226555 0.654359
0.045138 0.141411 -0.617445
-0.055099 -0.651204 0.261651
0.179138 0.298759 -0.062748
0.018659 0.076178 0.133536
0.035608 0.049784 -0.133640
0.035096 0.198206 -0.840381
0.056066 0.123292 -0.368372
0.021435 0.097405 -0.321391
0.046756 0.147167 -0.640804
-0.000830 0.110067 0.327270
-0.024192 0.021716 0.078585
0.008195 -0.087309 -0.041401
0.017623 0.081400 -0.265958
-0.084576 -0.678796 0.278333
-0.076516 0.104037 0.387523
0.011063 0.122964 -0.634658
0.034419 0.068214 -0.605866
0.042164 0.058825 -0.081032
-0.019791 -0.032314 -0.556546
-0.001703 0.114345 -0.617545
0.041492 0.108443 -0.372996
0.154097 0.250105 -0.090418
-0.215061 0.216981 0.702093
0.042928 0.031129 -0.012002
-0.092129 0.118185 0.435843
-0.074700 0.135578 0.432453
0.048139 0.029068 0.028650
-0.036815 0.063314 0.244044
-0.037811 0.042982 0.185870
-0.054819 0.001927 -0.563502
0.032768 0.161860 -0.622659
0.032668 0.053183 0.123770
-0.043830 -0.581134 0.256105
-0.025589 0.005320 -0.574874
0.031749 0.184609 -0.789110
0.277848 0.339884 -0.021451
0.025145 0.020128 -0.581978
-0.009593 0.047903 -0.594495
0.052704 0.040998 0.065313
-0.053105 -0.619324 0.259324
-0.031585 -0.033444 -0.557535
0.255949 0.315989 -0.016746
-0.101652 0.114058 0.430490
0.105828 0.149859 -0.220269
-0.012991 0.023491 0.043573
-0.080751 -0.855423 0.227582
-0.069492 -0.303174 0.154396
0.076535 0.188764 -0.199174
-0.033635 0.056893 0.205559
-0.038577 0.094906 0.292684
0.059764 0.164059 -0.246600
-0.064109 -0.741321 0.253239
-0.250014 0.243182 0.731914
0.008570 0.053450 -0.141015
-0.006183 -0.509662 0.263338
-0.155524 0.229477 0.631156
0.300418 0.378274 -0.028215
0.137828 0.180670 -0.161983
0.019500 0.081292 -0.113652
-0.064894 -0.720639 0.259915
0.042673 0.138512 -0.606707
-0.168918 0.192204 0.636753
0.026049 0.075469 -0.094403
-0.073355 -0.589777 0.263834
-0.064406 -0.795338 0.238004
0.239543 0.364105 -0.041755
0.049970 0.153272 -0.613500
-0.060692 -0.526939 0.248338
0.039088 0.065421 -0.182697
0.037661 0.209443 -0.845210
-0.136724 -0.904562 0.240355
-0.017977 -0.040373 -0.073472
0.237664 0.299933 -0.021804
0.032726 0.161494 -0.618242
0.030025 0.135733 -0.366176
-0.025215 0.147209 0.418266
-0.273497 0.250887 0.754586
0.027612 0.145469 -0.589491
0.039727 0.131612 -0.375815
-0.019123 0.067140 0.159036
0.028165 0.138990 -0.674887
-0.007937 0.053627 0.026797
0.020541 0.092341 -0.351938
-0.058018 0.104621 0.355571
0.003743 0.074998 0.035495
0.044265 0.051503 0.174044
0.039255 0.073510 0.185820
0.207633 0.281255 -0.038298
-0.143381 0.178509 0.589671
-0.177524 0.206158 0.651361
-0.029550 -0.105995 -0.003466
-0.066604 0.106904 0.377931
-0.017443 0.051643 0.086447
0.038799 0.084767 -0.309971
-0.023466 0.063475 0.166369
-0.025786 0.017904 -0.581810
-0.060195 -0.365438 0.193433
0.042797 0.132389 -0.453832
-0.093623 -0.737761 0.273299
0.000458 0.040171 -0.041349
0.096079 0.177321 -0.204269
0.044988 0.035837 -0.028860
-0.055601 -0.515444 0.243391
0.053955 0.045799 0.089229
0.007064 0.079858 0.067922
-0.008543 0.076800 0.152594
0.029154 0.069865 0.102806
0.050158 0.003785 -0.140540
-0.043577 -0.171416 0.067969
-0.113259 -0.822265 0.266141
-0.094003 0.190650 0.534105
-0.286050 0.235619 0.771844
-0.051788 -0.610124 0.258451
0.029093 0.148825 -0.572323
0.212604 0.284683 -0.035244
-0.029303 0.070785 0.217901
0.216104 0.303697 -0.040424
-0.052295 0.176002 0.479474
-0.018902 0.090465 0.233408
0.064422 0.131568 -0.331418
-0.065703 -0.637318 0.265934
0.004496 0.045506 -0.596415
-0.028156 -0.577345 0.258711
0.092305 0.223002 -0.148686
0.031964 0.143593 -0.344654
-0.039648 0.026894 -0.578230
0.017644 0.081680 -0.239925
-0.028652 0.042828 0.134688
0.143146 0.222437 -0.106058
0.026851 0.151600 -0.597775
0.045878 0.126332 -0.505834
-0.045232 0.044289 -0.578819
-0.187925 0.208250 0.665317
0.005617 0.135905 -0.639756
-0.006711 -0.236423 0.102787
-0.122576 -0.877579 0.238893
0.300499 0.329366 0.006060
-0.005941 0.077172 0.131439
0.007771 -0.256696 0.124279
-0.083534 0.078246 0.350418
-0.001463 -0.204656 0.081000
-0.322982 0.231193 0.795822
-0.069048 0.057728 0.314726
-0.018070 -0.606977 0.261558
-0.047482 -0.313211 0.159663
-0.042032 0.039960 0.254152
0.041363 0.096607 -0.363116
-0.037930 0.041619 0.185023
-0.063814 0.014435 -0.560422
-0.014398 -0.581188 0.259482
0.050222 0.213614 -0.798482
-0.037286 0.052588 -0.584401
0.323643 0.359363 -0.011118
-0.016650 0.072874 0.175543
-0.171630 0.170293 0.659716
-0.336805 0.240928 0.798307
-0.019519 0.040409 0.081756
0.053233 0.067305 -0.269216
0.032053 0.194524 -0.823524
0.013921 0.133853 -0.646042
0.174768 0.287273 -0.066947
-0.035315 0.063162 0.232220
-0.056444 -0.385111 0.198920
0.020229 0.061528 0.021954
0.227514 0.325089 -0.040404
-0.056907 -0.388874 0.200226
0.232876 0.357368 -0.043078
0.146733 0.190592 -0.130795
-0.121852 -0.806735 0.280260
0.054794 0.038985 0.078872
-0.019669 0.078371 0.205634
-0.099547 0.114530 0.430675
-0.132890 0.140830 0.542481
-0.014572 -0.031845 -0.082109
0.005637 0.083200 0.179857
0.143203 0.228003 -0.102258
-0.037889 0.138749 0.406931
0.074720 0.134832 -0.306975
-0.080225 -0.564468 0.268251
-0.076933 -0.607983 0.267228
0.130205 0.238595 -0.112729
0.053416 0.187132 -0.741386
-0.056479 -0.539415 0.248957
0.034877 0.075613 0.194040
0.049486 0.212022 -0.808464
-0.022281 -0.198009 0.072639
-0.281633 0.261623 0.759142
-0.039136 -0.317564 0.155696
0.038181 0.065952 -0.065158
-0.019068 0.080636 -0.600201
-0.135146 -0.915443 0.222232
0.200067 0.314810 -0.051092
-0.010831 0.059667 0.071694
-0.038718 0.054995 0.240030
0.051369 0.126837 -0.374774
0.034091 0.131122 -0.375706
-0.013156 0.057338 0.076159
-0.081260 0.085262 0.359041
0.003526 0.061238 -0.603867
-0.044151 0.158677 0.447918
-0.033575 -0.116824 0.010068
0.030396 0.157535 -0.650538
0.011553 -0.206190 0.088654
0.143732 0.239772 -0.104077
-0.054697 0.125943 0.389083
-0.038627 -0.655215 0.263766
-0.053944 -0.319045 0.166170
-0.142795 0.212839 0.604727
-0.083880 -0.603547 0.269852
-0.013539 0.069956 0.149304
0.050955 0.161717 -0.629133
0.001022 0.035542 -0.591832
0.051980 0.171602 -0.698550
0.002430 0.068925 0.023068
0.249872 0.292660 -0.005866
0.011029 0.070119 -0.093598
-0.012605 0.108708 0.316082
0.037181 0.137565 -0.350068
0.033176 0.090304 -0.383794
-0.079393 0.151740 0.469076
0.092672 0.229636 -0.140128
0.026256 0.081172 -0.139916
0.042591 0.149530 -0.665583
0.054342 0.115677 -0.397738
0.251504 0.342901 -0.037343
0.012429 -0.137364 0.026548
0.045704 0.138870 -0.603071
0.041111 0.147296 -0.313430
0.007881 0.080444 0.156878
0.027189 0.030011 -0.586023
-0.109992 0.165440 0.523864
0.005400 0.078356 0.041659
0.001471 0.084189 -0.612908
0.135891 0.282523 -0.090727
0.044441 0.128998 -0.551941
0.007092 0.078745 0.138785
-0.046733 0.028192 -0.574987
-0.026159 0.055416 0.150149
0.039366 -0.106366 0.003237
-0.034555 -0.641117 0.263123
0.286420 0.326122 -0.001295
-0.069718 -0.369924 0.198467
0.032958 -0.057137 -0.064950
-0.152283 0.137284 0.565402
-0.019788 -0.068457 -0.047043
0.192479 0.313063 -0.054642
0.045374 0.168544 -0.761907
0.123172 0.165736 -0.197653
0.030536 0.044127 -0.233135
-0.068151 -0.543427 0.255995
-0.020492 -0.031248 -0.078578
0.040670 0.115534 -0.402501
-0.047906 0.067252 0.289286
-0.002651 0.102855 -0.614430
-0.044894 0.044552 -0.578419
0.242638 0.320328 -0.030382
-0.012926 -0.346394 0.175009
0.034892 0.038909 -0.087387
0.025970 0.034378 -0.077236
0.031014 0.068999 -0.019661
0.014603 0.060687 -0.603598
0.045287 -0.046398 -0.082442
-0.013782 -0.583911 0.260684
0.175108 0.240732 -0.059228
0.285626 0.322704 -0.000136
0.152577 0.197371 -0.109707
0.139834 0.225587 -0.109267
0.019716 0.128956 -0.400561
-0.009961 -0.033250 -0.084071
0.054107 0.039036 0.076212
0.044712 0.120781 -0.484162
-0.248679 0.221108 0.749490
0.045551 0.136914 -0.351439
0.170388 0.287972 -0.068570
-0.011351 0.062213 0.080961
0.010703 0.082331 0.172944
-0.158491 0.162921 0.622764
-0.040041 0.036420 0.207937
0.052047 0.166639 -0.708638
-0.032345 -0.579095 0.259090
0.010734 0.066867 -0.262163
-0.027598 0.083798 0.249125
-0.179994 0.201882 0.653641
-0.013954 0.066144 0.130696
0.194740 0.342221 -0.051919
0.035695 0.055294 -0.180057
0.155859 0.295519 -0.075528
0.014733 -0.102297 -0.010815
0.018984 -0.102465 -0.010854
0.050567 0.047944 0.110781
0.015470 0.038443 -0.593838
-0.035885 0.054307 0.214375
0.077452 0.161385 -0.260879
-0.040094 -0.148733 0.048302
0.012673 0.109594 -0.631533
-0.037634 -0.618389 0.261096
0.055281 0.046902 0.111573
0.194455 0.285879 -0.055970
0.026685 0.129646 -0.463593
-0.003900 -0.133783 0.009972
-0.168083 0.166011 0.649070
-0.063704 -0.710066 0.260360
0.097176 0.191529 -0.185765
0.192652 0.301929 -0.055085
0.040410 0.104756 -0.397208
0.033376 0.052278 0.119604
-0.042867 0.140629 0.412872
-0.030004 0.053934 -0.588131
0.160748 0.209948 -0.078343
-0.077097 -0.828594 0.232846
0.030457 0.157609 -0.691684
-0.105524 -0.810269 0.263375
0.149611 0.253525 -0.090648
0.023102 0.102066 -0.420289
0.055381 0.154604 -0.690517
-0.012118 0.062608 0.088597
-0.136486 0.228978 0.609548
0.212674 0.309953 -0.044931
0.039402 0.090240 -0.325278
-0.065666 -0.582533 0.259210
-0.058193 0.053191 0.297375
-0.001648 0.028944 -0.192867
0.211578 0.341606 -0.047243
0.038900 0.067191 -0.221844
0.055984 0.054950 0.150699
0.096848 0.140608 -0.237938
-0.040827 0.151210 0.433037
-0.030904 -0.001914 -0.572207
0.051152 0.042463 0.027874
0.253144 0.295159 -0.004285
-0.009082 -0.373001 0.189806
0.008830 0.031415 -0.058333
0.020015 0.095869 -0.326651
-0.281785 0.228494 0.776070
0.027961 0.137395 -0.673278
-0.008971 0.143315 0.401728
0.039919 0.142627 -0.635351
0.042099 0.058379 -0.070284
0.044878 -0.008109 -0.117336
0.040658 0.044924 -0.080481
-0.328776 0.229023 0.800599
0.024830 -0.052007 -0.071976
-0.080881 -0.542385 0.259669
0.341488 0.394115 -0.020907
0.092864 0.170320 -0.215159
-0.074726 -0.024879 -0.542022
0.020672 -0.141935 0.038399
-0.053087 0.069461 0.300701
0.014615 -0.284963 0.149013
0.043730 0.131478 -0.455966
-0.036136 -0.120581 0.014007
-0.130008 0.198947 0.579616
0.039955 0.145682 -0.319941
0.152839 0.255141 -0.086225
0.032183 0.082849 0.220048
-0.184409 0.186682 0.686463
-0.120836 -0.833406 0.274726
0.281478 0.353262 -0.028041
-0.067871 -0.475717 0.229678
-0.110874 0.102863 0.407340
0.080685 0.188662 -0.197438
-0.058485 -0.686647 0.261592
0.026299 0.134570 -0.378515
0.095543 0.143129 -0.236235
0.193931 0.249634 -0.039239
0.014794 0.038422 -0.593858
-0.025309 -0.261567 0.115705
0.028355 0.126926 -0.437909
-0.045829 -0.584416 0.256170
-0.088402 0.127055 0.447281
-0.045730 -0.645253 0.261627
-0.016250 0.080448 0.196994
-0.125038 -0.855242 0.261587
-0.031139 -0.461740 0.228462
-0.007229 -0.016818 -0.104054
-0.015972 0.048085 0.072631
0.050979 0.159631 -0.634180
-0.057346 0.155604 0.451860
0.177510 0.322929 -0.058421
0.001478 0.078133 0.076246
-0.010604 0.066530 0.111683
0.010481 0.056339 -0.014314
0.026400 0.150017 -0.591155
-0.061558 -0.481959 0.232586
-0.033035 -0.252217 0.114264
0.028630 0.070117 0.095109
-0.032102 -0.084844 -0.032092
0.008583 -0.103891 -0.016474
-0.027218 0.068304 0.200860
-0.000642 -0.019724 -0.110377
-0.027519 0.033653 0.105460
-0.056778 0.102519 0.353553
-0.218847 0.237540 0.695888
0.152948 0.281610 -0.081621
0.114536 0.243565 -0.116918
-0.068231 -0.585390 0.260695
-0.365729 0.230605 0.808780
-0.108613 -0.841030 0.249502
0.021024 0.062954 0.046984
-0.003766 -0.384030 0.195287
0.018031 0.062845 -0.604945
0.094852 0.141530 -0.240497
-0.218485 0.235059 0.696987
-0.038495 -0.001461 -0.569331
0.018292 0.074655 0.098068
0.015331 0.074149 0.060473
-0.060524 -0.635709 0.259897
0.174211 0.240403 -0.060257
0.039332 0.081547 -0.615374
-0.043205 -0.269895 0.128407
-0.062846 -0.574221 0.259010
-0.087903 -0.669246 0.283279
-0.013191 0.073794 0.166614
-0.069646 -0.631589 0.266934
0.024506 0.128638 -0.524757
-0.058863 0.069803 0.311535
0.144538 0.191470 -0.133301
0.045682 0.140965 -0.603243
-0.173265 -0.971914 0.223008
0.031268 0.182408 -0.782436
-0.085146 -0.499784 0.241395
0.170292 0.311113 -0.063366
-0.018075 -0.527290 0.259246
0.021358 0.080469 -0.615412
0.000758 0.114416 0.342242
0.203620 0.255084 -0.030063
-0.000697 0.077730 0.090848
-0.029293 0.063877 0.200073
0.043635 -0.072960 -0.052013
-0.075715 0.079257 0.345581
-0.072557 0.107988 0.389894
-0.157083 0.230763 0.632364
-0.013568 -0.145314 0.027367
-0.089509 0.119009 0.434218
-0.068277 -0.606762 0.265555
-0.039182 -0.686256 0.261072
-0.038987 0.095798 0.300901
0.025331 0.125335 -0.403155
-0.095230 -0.682639 0.290672
0.037503 0.063701 0.070500
-0.037507 0.033964 0.148181
0.233759 0.318363 -0.035287
-0.092775 -0.873557 0.226107
0.168341 0.272332 -0.073166
-0.022483 0.066808 0.176581
-0.030853 0.059624 0.194263
-0.097502 0.108305 0.414466
0.037043 0.085008 -0.328223
0.047566 0.032390 0.012500
-0.042505 0.142074 0.416731
0.015853 0.075827 -0.100713
0.274249 0.340556 -0.025842
0.022883 0.071673 0.047237
-0.025527 0.045166 0.119288
-0.090634 -0.833114 0.244053
-0.121007 -0.894683 0.223077
0.025232 0.072323 -0.044766
0.021107 0.098334 -0.381858
0.184707 0.333484 -0.055070
-0.015651 0.052232 0.078285
-0.005807 0.079506 0.137575
0.019731 0.090080 -0.297051
0.252104 0.354975 -0.038985
-0.079937 -0.491345 0.237653
0.143472 0.288740 -0.084916
-0.039035 -0.237504 0.105558
-0.009661 0.087976 0.206310
0.013272 0.029614 -0.588429
0.040233 0.027665 -0.006466
-0.018734 -0.388951 0.198543
0.050433 0.209494 -0.799003
-0.249467 0.255094 0.727449
-0.054759 0.137076 0.415300
0.059731 0.131771 -0.339137
-0.317253 0.251715 0.786235
0.037216 0.139671 -0.484271
0.072720 0.187212 -0.201267
-0.024427 0.057479 0.146395
-0.141952 0.141562 0.562462
-0.016064 0.058527 0.093854
-0.034533 0.048381 0.172892
0.028490 0.103919 -0.456258
0.141051 0.183964 -0.152144
0.129676 0.234327 -0.115418
0.037969 0.058739 -0.188231
0.020693 -0.060142 -0.062315
-0.042517 -0.350920 0.176300
0.008411 0.065176 -0.144481
0.033116 0.092560 -0.268752
-0.027935 0.045223 0.135933
0.037350 -0.084760 -0.029209
-0.038525 -0.115647 0.008290
0.050320 0.038581 0.018578
0.001697 -0.139098 0.017099
-0.047693 -0.246673 0.111636
0.053293 0.168593 -0.676771
0.049935 0.153896 -0.593319
0.243447 0.323382 -0.031487
-0.031798 -0.703036 0.257048
-0.022025 -0.273941 0.121283
0.041061 0.140301 -0.624860
0.025290 -0.113935 0.007677
0.116839 0.225890 -0.131900
-0.240173 0.212777 0.748195
0.037984 0.213657 -0.841509
-0.012343 0.107680 0.310104
-0.121523 0.133101 0.509991
0.038126 0.054842 -0.143153
0.042826 0.038915 -0.218359
-0.369565 0.232146 0.809234
-0.010379 -0.445572 0.239966
0.003201 0.077124 0.081140
-0.006695 0.038685 0.012927
-0.039506 0.029112 0.137103
0.042336 0.149178 -0.663802
0.036845 0.051058 0.100470
-0.147080 0.202001 0.602668
0.054767 0.043864 0.088942
0.042297 0.140837 -0.335421
-0.044380 0.085488 0.294591
0.050964 0.160149 -0.677620
-0.153316 0.188198 0.606802
-0.040681 0.019521 -0.576072
0.002431 0.079837 0.136761
-0.061842 0.144039 0.437873
-0.038935 -0.196629 0.080970
0.010798 0.061561 -0.173585
0.003642 -0.407404 0.208227
-0.307796 0.262698 0.779362
0.022618 0.089071 -0.232911
0.041205 0.071091 0.178317
-0.070040 -0.626680 0.267714
-0.076861 -0.615915 0.267942
-0.053668 -0.372879 0.191885
0.016402 -0.256683 0.124419
-0.051714 -0.299330 0.150109
-0.009737 0.034104 0.033895
-0.049406 -0.422227 0.208394
0.098584 0.154387 -0.222776
-0.036118 0.115862 0.346419
0.014551 -0.095997 -0.019411
0.051472 0.051559 0.099993
0.023532 0.021157 -0.583071
0.011110 0.057526 -0.001339
-0.055623 -0.039584 -0.549712
0.202677 0.294388 -0.048966
-0.048133 0.169294 0.467064
0.246151 0.304682 -0.016942
-0.058038 0.043894 -0.569123
0.169989 0.282912 -0.070359
-0.093636 -0.863852 0.228878
0.005756 0.079359 0.070151
-0.023259 0.041303 0.102308
-0.063510 -0.324919 0.172518
0.009362 0.104972 -0.625215
-0.022902 0.012183 -0.579513
0.036528 0.144100 -0.330507
0.355334 0.393126 -0.018487
-0.072640 -0.818135 0.232966
-0.041569 -0.177212 0.072303
0.042917 0.057807 0.040773
-0.040663 0.110890 0.332546
-0.053047 -0.537539 0.246989
-0.154806 -0.947988 0.221179
0.238703 0.303104 -0.022494
-0.086152 0.139398 0.457365
-0.119432 0.137343 0.516206
0.006417 0.102607 0.287784
-0.023426 0.057713 0.148168
-0.079425 0.136303 0.439991
-0.095783 0.116338 0.434884
0.097130 0.149607 -0.229570
0.041660 -0.082853 -0.033315
0.056548 0.180889 -0.744996
-0.017061 0.059769 0.112262
0.048409 0.143789 -0.566587
-0.021385 0.038357 0.091216
0.042446 0.129652 -0.438991
-0.084106 -0.582271 0.269213
-0.018042 0.050573 0.087514
0.020222 -0.104300 -0.006091
-0.014344 0.063933 0.119734
0.032656 0.057372 -0.600068
-0.299226 0.235442 0.783646
0.066433 0.171225 -0.228357
0.019042 0.094416 -0.310665
-0.089183 0.157218 0.487845
0.047771 0.139178 -0.343260
0.031998 0.058029 -0.202986
0.228941 0.290412 -0.022709
-0.053713 -0.227061 0.099383
0.192836 0.262880 -0.046601
-0.097927 0.093563 0.385265
0.237121 0.300631 -0.022427
0.034685 0.192026 -0.787230
-0.190499 0.219763 0.669786
0.216279 0.280946 -0.029729
-0.081430 -0.643151 0.273274
-0.121796 0.153029 0.539470
0.128314 0.199628 -0.141796
0.009132 0.068544 -0.070143
-0.025270 -0.032939 -0.556840
-0.056166 0.113036 0.362622
-0.060587 -0.693627 0.262221
0.058275 0.149922 -0.299900
0.034918 0.065808 0.010879
-0.015623 0.061462 0.114606
0.050998 0.025375 -0.206904
0.088162 0.201632 -0.176439
0.197674 0.260336 -0.038857
0.000873 0.082946 0.177905
-0.117158 -0.807564 0.278369
-0.056298 -0.318458 0.163886
-0.119046 0.199811 0.566633
0.052353 0.036322 0.060426
-0.045005 0.129637 0.391540
0.031086 0.136608 -0.363592
-0.068277 0.024976 -0.557850
0.035768 0.200652 -0.848775
-0.032145 0.037401 -0.584010
0.032220 0.187021 -0.774493
-0.047399 0.037547 -0.576257
0.198355 0.266750 -0.040531
0.019376 0.092670 -0.335619
-0.019251 0.018858 -0.581704
0.034573 0.155629 -0.714879
-0.128802 0.218771 0.591769
-0.086480 -0.497512 0.240970
0.244860 0.287805 -0.007303
-0.030714 0.075255 0.236105
-0.067334 -0.572315 0.261046
-0.008927 -0.381673 0.195039
0.124622 0.172462 -0.186346
-0.039118 -0.015519 -0.563599
-0.010752 0.015738 -0.169226
0.036138 0.065055 0.086532
0.145004 0.218639 -0.103921
-0.117892 0.142503 0.521997
-0.119146 -0.864018 0.250936
0.021975 -0.139034 0.035894
0.030866 0.071853 -0.083707
0.019769 -0.260143 0.127006
-0.083655 -0.668783 0.278854
0.023812 -0.082532 -0.033091
0.362155 0.382244 -0.007706
0.009515 -0.262419 0.128752
-0.265181 0.252358 0.747284
0.033972 -0.103153 -0.002362
0.348825 0.376313 -0.010821
0.051244 0.174414 -0.674912
0.096251 0.190449 -0.188449
0.029748 0.059008 -0.012026
-0.019404 0.144778 0.410513
-0.023285 0.042286 -0.588785
0.015397 0.041187 -0.117610
0.052792 0.050127 0.100714
0.015735 0.072417 -0.609850
0.022893 -0.078093 -0.038968
0.033885 0.140211 -0.347705
0.231545 0.303072 -0.028021
-0.056970 -0.231419 0.101040
-0.012123 0.023211 0.043052
0.176165 0.225198 -0.056542
0.044821 0.058076 0.074559
0.040421 0.059982 0.015425
-0.005054 0.084712 0.181344
-0.102650 0.116065 0.438740
0.038890 0.156864 -0.566302
0.253194 0.308566 -0.012423
-0.061721 0.107287 0.370645
0.030366 -0.071877 -0.045780
0.051237 0.151207 -0.568462
-0.034161 -0.413420 0.203228
-0.014299 0.062711 0.109016
0.035351 0.081379 0.215735
0.011049 0.012745 -0.577776
-0.077912 -0.807394 0.242178
0.100798 0.248994 -0.118038
0.017210 0.107902 -0.636077
-0.046166 0.050457 0.271461
0.057072 0.124671 -0.363379
0.241973 0.331590 -0.036311
0.135695 0.199776 -0.132481
-0.153336 0.192741 0.606836
-0.109454 0.185680 0.543742
-0.039623 -0.341828 0.169931
-0.164042 0.176123 0.639408
-0.019573 0.104459 -0.604626
-0.003299 0.119469 0.352374
-0.007819 0.102916 -0.611530
0.037930 0.091789 -0.359184
-0.059461 -0.248088 0.110183
-0.025653 -0.039450 -0.072894
0.029604 0.050382 -0.597153
0.149446 0.219358 -0.094549
0.022921 0.097863 -0.407879
0.011007 0.087001 0.210676
-0.257272 0.247787 0.739618
0.044822 0.126905 -0.410502
-0.040822 0.137126 0.406688
0.036389 0.005093 -0.151287
0.033421 0.187334 -0.827865
-0.031963 -0.292493 0.138632
-0.110142 0.172192 0.531410
-0.024006 0.136206 0.391205
-0.087279 -0.518754 0.251528
0.050810 0.048182 0.058584
0.049248 0.079644 -0.287198
-0.077584 -0.624470 0.270831
-0.093833 -0.727763 0.275001
0.018930 0.079507 -0.142819
0.052257 0.181515 -0.797189
0.153505 0.242791 -0.086980
-0.220489 0.236761 0.698538
0.044537 0.139366 -0.493096
0.022445 -0.000422 -0.153658
0.198713 0.290051 -0.051094
-0.240585 0.249777 0.716433
0.127232 0.181077 -0.169840
0.010730 -0.122201 0.007586
0.252510 0.311384 -0.016436
0.181223 0.252526 -0.056842
0.150531 0.249768 -0.089703
-0.055776 -0.651024 0.261673
-0.007846 0.043393 0.020231
0.005140 0.087954 -0.291857
0.011799 0.049434 -0.234618
0.051593 0.046464 0.062069
-0.011326 -0.002086 -0.128234
-0.016090 0.037549 0.061875
0.031860 0.081459 -0.346825
-0.012460 0.039772 -0.590908
0.035674 0.192556 -0.779494
-0.114327 0.133751 0.501251
0.126262 0.258407 -0.103268
-0.012056 0.063509 0.091441
0.081570 0.181755 -0.207479
0.041074 0.123535 -0.656817
-0.051146 -0.538130 0.246607
-0.012227 -0.003036 -0.573206
0.043918 0.146306 -0.510476
0.035692 0.067206 0.122109
-0.027506 -0.273763 0.124448
0.151114 0.283548 -0.082543
0.030016 0.069262 0.092066
0.052362 0.075444 -0.277309
-0.031712 0.058078 0.190214
-0.069966 -0.498151 0.239235
-0.044654 0.147273 0.428237
0.013489 0.070856 -0.150288
-0.041613 -0.249229 0.114144
0.010254 0.042731 -0.111416
-0.072928 0.062337 0.323966
-0.010548 -0.386236 0.197857
-0.070500 0.020083 -0.556104
-0.082392 0.142892 0.457244
0.027940 0.059226 -0.013051
0.076836 0.143127 -0.283266
-0.030939 -0.348622 0.169814
-0.036714 -0.219059 0.093583
-0.007257 0.066066 0.084253
-0.043329 0.027310 -0.576434
0.110993 0.211735 -0.150454
0.157208 0.261401 -0.081522
-0.057821 -0.719859 0.257706
0.052025 0.047603 0.069907
-0.064550 0.114834 0.383759
0.337772 0.374799 -0.014705
0.003264 0.107153 -0.620204
0.337702 0.359093 0.002305
0.034725 -0.107440 0.003553
0.051770 0.188986 -0.731730
-0.009701 0.067062 0.105117
0.001427 0.071287 -0.266076
0.046996 0.060434 0.126858
-0.010721 -0.035730 -0.080772
0.011678 0.062297 -0.182712
-0.015900 -0.223117 0.084971
-0.035947 -0.556801 0.255689
-0.024417 0.155305 0.430152
0.030422 0.039416 -0.102897
-0.167480 -0.978865 0.206361
-0.014307 -0.027906 -0.086057
-0.065770 -0.361847 0.195636
0.002100 -0.207627 0.084136
-0.099006 -0.778715 0.268174
-0.029447 -0.587362 0.259443
-0.108161 -0.738541 0.278890
-0.041945 -0.720392 0.252930
-0.330648 0.223869 0.801443
0.050726 0.047576 0.019284
-0.003519 0.057050 -0.001060
0.032923 0.053404 0.100463
0.058014 0.195947 -0.844293
0.037995 0.034868 -0.057987
-0.216594 0.195652 0.724274
-0.031082 0.044277 0.144077
-0.003852 -0.322372 0.165928
0.121067 0.217794 -0.136819
-0.114571 0.209863 0.568969
-0.063794 0.135139 0.421248
0.012481 0.034858 -0.591840
-0.285862 0.244969 0.765981
-0.071301 -0.575098 0.264101
-0.066404 -0.645894 0.267520
0.014141 0.075375 0.100636
-0.005337 0.039406 -0.592843
0.009080 0.076320 -0.007916
-0.059110 0.069365 0.313002
0.040500 0.029905 -0.021105
0.247558 0.292089 -0.007649
0.005078 -0.119186 -0.001873
-0.083774 -0.559739 0.266868
-0.108869 0.113159 0.429409
-0.091861 -0.849809 0.236019
0.042491 -0.063113 -0.062956
0.033713 -0.138606 0.043378
0.000775 0.052640 -0.059186
-0.089020 0.090887 0.372878
0.028117 0.153843 -0.601259
-0.156515 0.167947 0.618850
-0.014204 -0.111787 -0.003178
-0.023630 0.034437 0.094736
0.043660 0.169334 -0.626702
-0.100360 0.100325 0.398973
0.032202 0.179389 -0.731706
-0.043538 0.137101 0.408319
-0.078743 0.192328 0.523885
0.051497 0.172922 -0.758369
0.004214 0.049646 -0.597995
0.040989 0.177675 -0.820761
0.001466 -0.338397 0.174741
-0.030723 0.094449 -0.596947
0.048267 0.097351 -0.635424
-0.034659 0.030569 -0.581337
0.309249 0.379316 -0.025867
0.051163 0.127457 -0.374967
-0.087268 -0.621600 0.274897
0.244598 0.336244 -0.037223
0.051523 0.170459 -0.701121
-0.090025 0.105591 0.402287
-0.128402 0.176490 0.559485
-0.047284 -0.036607 -0.553357
0.252028 0.293259 -0.005290
0.036205 0.151443 -0.308767
0.042015 0.105378 -0.420573
0.107444 0.175957 -0.192005
-0.081415 -0.413249 0.207568
-0.102217 -0.858542 0.235458
-0.035641 -0.343347 0.169297
-0.075202 -0.492640 0.237586
-0.021360 0.040880 0.090084
0.150357 0.203815 -0.105232
-0.126724 0.200465 0.573685
0.031558 0.052833 0.229721
0.241618 0.291209 -0.011519
0.046704 0.063683 0.153667
-0.013526 -0.392072 0.201732
0.023954 0.089613 -0.376643
-0.078097 -0.473698 0.228499
-0.083205 -0.606724 0.269938
0.036758 0.167508 -0.628795
-0.017020 -0.288330 0.135620
0.050351 0.152071 -0.637994
-0.035629 0.098317 0.292436
0.039918 0.180967 -0.691225
0.020526 0.085333 -0.342670
0.006649 0.087508 0.213762
0.142868 0.265357 -0.090840
0.030212 0.134377 -0.587890
0.025282 -0.238746 0.109625
0.032202 0.148439 -0.538264
-0.043720 -0.186097 0.078369
-0.039691 0.072520 -0.586745
-0.113141 0.212236 0.567796
-0.003678 0.073336 -0.606116
0.016657 -0.038334 -0.100229
0.050820 0.214173 -0.822774
-0.013228 -0.015080 -0.098159
0.000589 0.127859 0.369872
0.158488 0.235759 -0.081618
0.204477 0.342431 -0.049069
0.030991 0.039789 -0.103894
0.024470 0.074069 0.138099
-0.177784 0.184135 0.667041
0.023788 0.113296 -0.435079
0.066186 0.149406 -0.295850
-0.055345 0.142355 0.429127
-0.349414 0.242455 0.804117
0.003186 0.071584 0.032468
-0.059392 -0.383680 0.197467
-0.439100 0.249428 0.835367
0.002504 0.061296 -0.030991
-0.084005 -0.787961 0.253829
0.007825 0.082545 -0.616493
0.309304 0.394153 -0.029499
0.096486 0.247656 -0.119980
0.035956 0.096753 -0.405375
-0.024761 0.047944 0.119384
0.219830 0.355863 -0.045748
-0.091878 -0.744143 0.270285
-0.107941 0.151485 0.508451
-0.033026 0.064041 0.220693
-0.014740 0.051771 0.068390
0.005830 0.054510 -0.119728
-0.096053 0.147598 0.482450
-0.085768 -0.858232 0.227586
0.052294 0.162034 -0.665581
-0.036199 0.061231 0.232720
0.047112 0.134438 -0.531682
-0.058237 0.121750 0.380025
0.037055 0.073143 -0.161673
0.014180 0.066580 -0.606497
0.036991 0.029767 -0.032802
0.235954 0.283057 -0.011122
0.017661 0.097275 0.277398
-0.036425 0.046113 0.209394
0.009534 0.029365 -0.588927
0.017976 0.110354 0.333644
-0.071500 -0.695627 0.264173
-0.077842 -0.520973 0.251290
0.051544 0.160845 -0.654902
-0.077172 0.138815 0.440935
-0.137342 -0.906797 0.238048
0.042698 0.191398 -0.740199
-0.047115 0.064383 -0.581127
0.047786 0.148046 -0.544767
0.056823 0.185094 -0.764678
0.045484 0.136471 -0.354911
-0.027547 0.081062 0.240493
-0.078257 0.123418 0.423205
-0.001527 0.081862 0.143918
-0.157749 0.161019 0.619716
0.022908 0.077194 0.161476
0.244785 0.335871 -0.036671
0.170424 0.243613 -0.068230
-0.061003 -0.351130 0.187499
0.039854 0.149525 -0.308034
0.002544 -0.004250 -0.570235
0.194796 0.255991 -0.041554
-0.014444 -0.052182 -0.062399
-0.059698 0.058598 0.304267
-0.003798 -0.216732 0.089004
-0.008916 0.065791 0.085307
0.043649 0.152967 -0.676802
0.008278 0.112129 0.336438
0.017579 -0.103777 -0.008264
-0.021711 -0.033494 -0.078341
0.006343 0.017991 -0.582735
0.110884 0.186514 -0.175233
0.250305 0.319260 -0.025137
0.044470 -0.059896 -0.066000
0.013910 -0.073025 -0.050701
0.046057 -0.038515 -0.088341
0.022203 0.153742 -0.670825
-0.252450 0.238045 0.736349
-0.009686 0.067319 0.108163
-0.047539 -0.501234 0.237115
-0.074727 0.181704 0.504228
0.028346 0.077498 -0.334552
0.012949 -0.070848 -0.054104
0.050044 0.050435 0.060037
-0.120613 0.187200 0.557346
0.039535 0.084653 -0.267740
0.021035 0.063100 -0.288105
-0.087444 -0.799953 0.252071
0.045326 0.035889 -0.023834
0.030141 0.058698 0.000755
-0.103530 -0.773579 0.271517
-0.076913 -0.687366 0.270625
-0.006045 0.042044 0.010216
0.044574 0.136948 -0.350604
-0.012653 -0.581071 0.261149
0.256157 0.296652 -0.003050
-0.053712 -0.620288 0.260205
0.002060 0.053289 -0.599136
-0.109579 -0.881404 0.226067
0.078810 0.142681 -0.281462
-0.109062 -0.762826 0.277426
0.006562 0.129597 -0.634893
0.347985 0.377262 -0.011448
-0.076570 -0.779704 0.250833
0.027981 0.135921 -0.667283
-0.111985 0.107247 0.414506
0.036032 0.201222 -0.849282
0.195151 0.246282 -0.037091
0.119502 0.167948 -0.195568
0.041715 0.060508 -0.094049
0.028097 0.144866 -0.554766
0.033879 0.114149 -0.515108
0.023782 0.123340 -0.460754
0.219470 0.306738 -0.040488
-0.021940 0.095196 0.247931
0.038029 0.210848 -0.840594
-0.001424 -0.067407 -0.057081
0.043752 0.053473 -0.048183
0.131463 0.205237 -0.131645
0.018661 0.077385 -0.037579
-0.051954 0.102193 0.338964
-0.017451 0.076510 0.186632
-0.037482 -0.143341 0.040280
0.025861 0.100703 -0.310577
-0.072087 0.192638 0.518014
-0.083409 0.122279 0.433617
-0.046229 -0.509607 0.240930
0.172221 0.237307 -0.062148
-0.022213 0.049168 0.113283
0.049712 0.140928 -0.560103
-0.321270 0.222716 0.799372
0.334016 0.356730 -0.001319
-0.063749 -0.725295 0.257113
-0.029735 -0.675303 0.264386
-0.025158 0.127084 0.369347
0.037856 0.177972 -0.689134
0.038570 0.049970 0.144126
0.032906 0.179588 -0.726792
0.043563 0.128487 -0.393993
0.313264 0.377311 -0.023938
-0.025185 -0.477741 0.241297
0.032169 0.067054 0.070761
0.206781 0.285751 -0.041996
-0.033650 -0.261538 0.121058
0.040169 0.037696 -0.064671
-0.028387 -0.662881 0.265405
0.263952 0.374676 -0.036278
0.083939 0.214042 -0.163727
0.200534 0.253123 -0.032566
0.146463 0.302220 -0.076298
0.013711 0.068441 -0.607418
-0.011205 0.082861 0.183540
-0.030267 0.043863 0.142954
-0.032536 -0.155746 0.049404
-0.016902 0.039771 0.069746
-0.016638 0.034683 0.062744
-0.107989 -0.830133 0.258531
0.055893 0.196072 -0.818929
0.027112 -0.108251 0.002112
0.026917 0.052611 0.220500
-0.079740 -0.741538 0.260991
-0.075068 -0.613243 0.266865
0.039898 0.210701 -0.833162
0.035814 0.193574 -0.784828
-0.072156 0.173888 0.488557
0.045564 0.030779 0.001660
0.036072 0.068889 -0.280225
-0.029017 -0.581088 0.260343
-0.027071 0.065615 0.192805
0.073057 0.157480 -0.276634
0.038652 0.093049 -0.358668
-0.059957 0.117542 0.378140
0.044083 -0.032579 -0.093916
0.023074 0.118368 -0.458429
0.014450 -0.167109 0.059342
-0.124057 0.194346 0.567096
-0.075291 0.106371 0.391315
0.038982 0.059033 -0.153546
0.042888 0.148280 -0.527507
0.043232 0.109973 -0.433882
0.047347 0.211419 -0.796022
0.031066 0.100235 0.300743
-0.010851 0.086613 -0.605197
-0.020269 0.130856 0.376414
0.012928 0.061114 -0.603839
0.036171 0.153184 -0.705808
0.045813 0.149174 -0.302375
0.020061 0.072464 -0.301688
0.007398 0.077445 0.110333
0.005454 0.072552 0.012929
0.033123 0.061216 -0.265456
-0.069059 0.169665 0.480765
-0.037104 0.043255 0.179063
0.042606 0.136404 -0.669762
0.050047 0.051086 0.064110
-0.023412 0.037633 0.100100
-0.168270 0.195648 0.633664
0.139634 0.229014 -0.108874
-0.094410 0.179461 0.520765
-0.020408 0.125743 0.363250
-0.031464 0.034292 0.126445
-0.020546 -0.437028 0.225367
-0.067731 -0.390013 0.203859
-0.211320 0.219725 0.695190
0.083155 0.166325 -0.239279
-0.242907 0.228543 0.729812
0.353214 0.381977 -0.012513
-0.085330 -0.630857 0.274167
-0.017746 0.051337 0.083625
0.133794 0.175243 -0.177059
-0.035851 -0.192115 0.076709
-0.046945 -0.177259 0.073091
-0.054088 -0.458728 0.222687
-0.050725 0.094452 0.324381
-0.132239 0.175220 0.563612
-0.007150 0.145110 0.404712
0.039343 0.061144 0.019749
0.009961 -0.336837 0.171570
0.026430 0.128594 -0.461078
-0.039710 -0.314348 0.155330
-0.030412 -0.657116 0.264983
-0.072625 -0.443768 0.216517
-0.007420 -0.047170 -0.072790
-0.145434 0.191629 0.593574
0.289027 0.333928 -0.007763
0.017368 0.078063 -0.028893
0.014641 0.077278 -0.038866
0.213058 0.283497 -0.034057
-0.058784 0.140828 0.427911
0.049779 0.174550 -0.776791
0.050434 0.134681 -0.367573
0.015611 -0.271543 0.137767
0.218879 0.294226 -0.036038
0.129843 0.177097 -0.174822
-0.170032 0.196368 0.636667
0.041085 0.036873 -0.214786
-0.020481 0.058833 0.126640
-0.125738 -0.854733 0.268661
0.007580 0.093464 -0.620237
0.040435 0.001030 -0.140135
-0.039296 0.096926 0.299961
-0.062079 0.140352 0.432088
0.153206 0.292354 -0.078488
0.038642 0.027316 -0.012140
0.047220 0.130141 -0.524376
0.036661 0.065430 -0.028088
-0.149296 -0.942073 0.243450
-0.070173 -0.650744 0.266842
-0.017663 -0.428866 0.222355
0.050939 0.164859 -0.651801
0.017156 0.073589 0.056568
-0.024627 0.035755 0.097337
-0.101819 -0.714519 0.283013
0.050958 0.039226 -0.227738
0.005119 0.068636 0.005727
0.073262 0.207859 -0.176350
-0.031217 0.033329 0.124191
0.179033 0.240321 -0.054715
-0.064135 -0.700744 0.261776
0.029337 -0.199692 0.086661
0.048680 0.127336 -0.665656
0.186895 0.236630 -0.043826
-0.059502 0.180944 0.491376
-0.100810 0.166343 0.514069
0.195726 0.249436 -0.036756
0.034371 0.159192 -0.586413
-0.062910 -0.305801 0.155888
0.113708 0.189175 -0.169190
-0.123382 -0.830071 0.279717
-0.025425 0.107321 0.310399
-0.037300 -0.624765 0.261437
-0.028855 0.074185 0.229256
-0.018256 0.077915 0.197348
0.030224 0.072018 -0.609714
0.013553 0.086106 0.209616
-0.021315 0.050569 0.105873
-0.076623 0.143249 0.451233
-0.401217 0.244406 0.821789
0.196100 0.248613 -0.036553
0.119588 0.214061 -0.143000
-0.017584 -0.018510 -0.091661
0.026774 0.108083 -0.369305
0.025614 0.098772 -0.286707
-0.012173 0.096624 0.261219
-0.107094 0.122878 0.461872
-0.059886 -0.638051 0.261766
0.003925 -0.121765 0.002384
-0.055935 -0.339661 0.179217
-0.009958 0.049513 0.036436
-0.022275 0.064488 0.167328
0.014451 0.028352 -0.206289
-0.016084 0.069858 0.160381
0.245062 0.295293 -0.011212
0.024852 0.104540 -0.337822
-0.352158 0.232874 0.805702
-0.022389 0.077863 0.211117
0.045608 0.121506 -0.424827
-0.170717 0.194709 0.639812
-0.025755 0.034277 0.105440
0.023052 -0.005726 -0.141642
-0.114643 -0.769499 0.278985
-0.034967 0.170823 0.459266
-0.028423 -0.088515 -0.025239
0.037534 0.161039 -0.583883
0.185830 0.245257 -0.047800
0.310841 0.339294 0.002004
-0.096826 -0.865976 0.231289
-0.000251 0.042025 -0.039641
-0.095826 0.112193 0.423384
-0.081984 -0.492176 0.237794
0.272923 0.340085 -0.026829
-0.088528 -0.753555 0.266858
-0.093896 0.205799 0.549254
0.215926 0.288357 -0.035335
-0.064815 -0.001891 -0.554220
0.281274 0.339173 -0.018199
0.236506 0.361455 -0.042577
0.003610 -0.382538 0.193418
-0.023775 0.083723 -0.598853
-0.057139 0.109980 0.361145
-0.036212 -0.341819 0.169626
0.051002 0.193087 -0.757258
0.016047 -0.054045 -0.075216
0.298662 0.385773 -0.030490
0.130673 0.263659 -0.098771
0.025054 0.121516 -0.421890
-0.016382 -0.030943 -0.556706
0.136296 0.186060 -0.152414
0.294683 0.381061 -0.030512
-0.039562 -0.719886 0.251445
0.025102 -0.158380 0.060487
0.013073 0.059479 -0.603040
-0.005586 0.060894 0.037923
0.020118 -0.157252 0.054997
-0.065098 0.004464 -0.555456
-0.065318 0.020937 -0.558903
0.210193 0.351694 -0.047893
-0.022953 -0.421283 0.214080
-0.007905 -0.390698 0.199773
-0.002556 0.052946 -0.237936
0.275893 0.311193 0.001750
-0.039756 0.096596 0.300935
0.218625 0.284519 -0.029329
-0.055106 0.114983 0.361746
0.239800 0.300430 -0.018718
-0.012766 -0.574950 0.260105
-0.050589 -0.600121 0.257266
0.022603 0.072506 0.082302
-0.050061 -0.386990 0.194265
-0.008945 0.118668 -0.611495
0.014806 0.077428 -0.009774
0.026515 0.059254 0.102693
0.007901 0.074071 -0.010257
-0.059104 -0.725118 0.256708
-0.017350 0.052945 0.087879
-0.015032 0.039645 0.060459
0.049112 0.115560 -0.404974
-0.093154 -0.725367 0.274351
-0.002391 0.131759 0.378220
0.144084 0.225647 -0.103304
0.041540 0.059751 -0.076032
-0.011243 0.046232 0.040502
-0.029944 0.106873 0.308639
0.030746 0.175901 -0.732237
0.112009 0.156572 -0.211960
0.074623 0.195868 -0.189683
-0.062766 0.169301 0.475432
0.039220 0.195475 -0.777304
-0.008988 0.028602 0.030583
0.030149 0.105885 -0.315095
0.049746 0.156110 -0.590475
0.034093 0.196104 -0.836751
-0.024752 -0.458583 0.233887
0.034171 0.098225 -0.291439
-0.033887 0.044816 0.162905
-0.087934 0.093470 0.378639
-0.053677 -0.226299 0.098236
0.225993 0.290466 -0.025357
0.043514 0.122489 -0.406145
-0.033020 -0.082455 -0.033841
-0.021368 -0.475121 0.244693
0.077834 0.130997 -0.322460
-0.255201 0.226266 0.751516
-0.001405 0.058598 -0.013419
-0.052304 0.051997 0.286144
-0.024296 -0.644013 0.265146
-0.052915 0.075198 0.306949
0.043901 0.162765 -0.735580
-0.069056 -0.420957 0.209925
0.026376 0.139222 -0.565656
0.263430 0.335637 -0.027240
-0.031647 -0.560803 0.257539
-0.045762 0.046730 -0.578572
-0.072107 -0.376925 0.200385
-0.116606 -0.846642 0.258683
-0.030152 0.027181 0.105520
0.040093 0.063627 -0.168291
0.035391 0.150569 -0.540649
-0.057663 -0.563619 0.254915
-0.064447 0.142672 0.438361
0.004747 -0.124263 0.005170
-0.002204 0.059423 -0.005213
-0.341301 0.228586 0.802794
0.037316 0.148631 -0.315636
0.026913 0.033019 -0.587781
-0.012124 -0.598431 0.260990
0.040235 0.063566 -0.076123
0.033121 0.086709 -0.238341
-0.062977 0.026132 -0.562828
-0.079037 -0.761654 0.257850
-0.041865 -0.028253 -0.558247
0.006871 0.078058 0.029490
-0.036387 -0.732151 0.248170
0.037043 0.114541 -0.645639
0.046252 0.184601 -0.706255
0.073145 0.138053 -0.302698
-0.016329 0.062648 -0.596720
0.008845 -0.322899 0.168142
-0.029010 -0.504084 0.247207
0.007401 0.067149 -0.606165
-0.265023 0.240767 0.749053
-0.004393 0.051508 -0.004044
0.042336 0.161005 -0.732814
-0.035922 0.142467 0.414085
-0.075499 -0.578934 0.265350
-0.010445 -0.364871 0.184482
0.026216 0.169351 -0.688085
0.021929 0.069546 -0.303724
-0.054494 0.080850 0.316210
0.029036 0.060376 0.047226
-0.021737 -0.085824 -0.026630
-0.046807 -0.653145 0.262094
-0.086196 -0.635495 0.274952
-0.062349 0.038060 -0.566049
0.045258 0.159150 -0.580257
-0.013682 -0.156022 0.035918
0.034076 0.065808 0.066082
-0.138354 0.156469 0.573307
0.002885 -0.330332 0.171961
-0.040099 -0.217580 0.093250
-0.043670 0.050689 0.263972
0.000566 -0.392145 0.201602
-0.002137 -0.022256 -0.103998
0.060010 0.120989 -0.366415
0.019435 0.065649 -0.286745
0.043900 0.130678 -0.455698
0.040694 0.076749 -0.242711
0.063684 0.118826 -0.372328
-0.054637 0.114909 0.360512
-0.064663 -0.017180 -0.549815
0.153915 0.307947 -0.070324
0.044199 0.036777 -0.030786
0.035575 0.178658 -0.703530
0.022586 0.086738 -0.163405
0.015111 0.007771 -0.575927
-0.073950 0.115305 0.403791
0.025802 0.019497 -0.187125
0.049199 -0.039089 -0.088570
0.033244 0.180147 -0.811595
0.030418 0.172432 -0.752571
-0.009063 0.086134 0.182949
-0.025559 0.032470 0.097849
0.201978 0.292453 -0.051987
-0.188991 0.192273 0.687103
0.038537 0.096399 -0.305630
-0.008143 -0.587176 0.261093
-0.005532 0.065275 0.064359
-0.038774 -0.048368 -0.546375
0.041704 0.056052 -0.122603
0.036414 0.156620 -0.570254
0.042462 0.192228 -0.745803
0.039749 0.071693 -0.226235
-0.026945 -0.380588 0.190330
-0.021289 -0.550811 0.261062
0.050111 0.194848 -0.762723
0.047134 0.141881 -0.530730
0.021397 0.100358 -0.357421
0.008763 0.078341 0.134815
0.238419 0.353242 -0.041817
0.046264 0.127108 -0.482247
-0.020170 0.075766 -0.598352
-0.034067 0.148252 0.423764
0.045608 0.027364 -0.201999
0.158508 0.234588 -0.080161
-0.039929 0.102068 0.310820
-0.011202 -0.538717 0.263271
-0.020856 0.024212 0.072384
-0.033000 0.068410 0.232451
-0.000763 0.055993 -0.032509
0.063377 0.125272 -0.347580
-0.112516 -0.807234 0.271879
-0.037125 0.071296 0.253942
0.105041 0.236644 -0.127802
0.028850 0.149853 -0.584635
0.354894 0.385250 -0.014454
0.048078 0.037531 -0.000059
0.049966 0.158414 -0.618749
-0.009868 0.045297 0.031641
-0.057373 0.151380 0.443002
0.045457 0.137982 -0.344326
-0.040184 0.036551 0.176197
-0.096742 0.150290 0.486198
0.072802 0.209284 -0.174634
0.071314 0.131179 -0.326131
0.024799 0.071548 0.066578
-0.002690 0.078941 0.111833
0.052716 0.063263 0.179641
0.050751 0.179258 -0.684849
0.110085 0.191079 -0.170454
0.161643 0.282312 -0.075090
0.031506 0.113926 -0.367181
0.094456 0.137658 -0.244796
0.026158 0.099365 -0.287708
-0.000790 0.066848 0.037140
0.002798 -0.047397 -0.084413
0.185474 0.332324 -0.054963
0.029017 0.076300 -0.612115
0.030874 0.064101 -0.234963
-0.054982 -0.480884 0.231530
0.030049 0.167562 -0.711260
-0.041513 -0.030340 -0.558127
-0.116250 -0.797996 0.276649
-0.009062 0.027719 0.031299
-0.029802 -0.565302 0.258341
0.236483 0.306915 -0.026548
0.244743 0.304848 -0.018431
-0.052826 0.071231 0.301959
0.027472 0.103428 0.307710
0.041223 0.063164 -0.082032
-0.059538 0.056121 0.301598
0.042121 0.058270 -0.089757
0.019331 0.132157 -0.651458
-0.040119 0.033865 -0.579649
0.003116 0.069114 0.017965
-0.050938 -0.583692 0.254572
-0.002263 -0.118948 -0.005122
-0.059929 -0.587769 0.258976
-0.035114 -0.248993 0.112368
0.052757 0.129127 -0.365892
-0.154864 0.226441 0.629900
0.035085 0.189378 -0.764298
0.037297 0.169954 -0.635724
-0.052946 0.143742 0.428711
0.129544 0.215418 -0.127518
-0.087045 0.156606 0.482701
0.018463 0.074068 -0.265982
0.038364 0.142057 -0.495595
0.246668 0.316137 -0.025735
0.219464 0.305520 -0.039765
0.152353 0.206541 -0.098285
0.005568 0.060698 -0.106287
-0.039101 -0.036568 -0.555425
0.246054 0.348799 -0.039623
-0.024547 0.123269 0.360514
0.045710 0.142065 -0.507160
-0.019017 -0.074537 -0.039966
0.003168 0.039623 -0.061497
-0.048775 0.047109 0.275311
0.026386 0.055403 -0.201486
0.023077 -0.079968 -0.035577
-0.007628 0.027101 0.023215
-0.032062 0.026209 0.117924
0.258854 0.323302 -0.021452
-0.125167 -0.860120 0.265240
0.072967 0.165136 -0.250575
-0.026009 0.106615 0.307724
-0.084950 -0.664998 0.279117
-0.046331 0.088490 0.304964
-0.153959 0.180096 0.614011
-0.001610 0.069143 0.062201
-0.105035 0.213547 0.560493
-0.085423 -0.628374 0.273912
-0.043934 0.145975 0.425330
0.039856 0.132592 -0.370360
0.033383 0.003525 -0.149227
0.246600 0.318142 -0.026616
0.000197 0.057316 -0.241907
-0.045078 -0.024940 -0.557748
0.190498 0.282323 -0.059635
-0.029843 0.086374 -0.596076
0.013494 0.071907 -0.165193
-0.044358 -0.235752 0.104995
0.148797 0.295002 -0.079130
0.057070 0.201242 -0.848144
0.024894 0.071026 0.044470
0.005474 -0.104692 -0.021914
-0.048388 -0.016038 -0.559749
-0.038011 -0.516979 0.246005
0.052086 0.134303 -0.362635
0.035296 0.112852 -0.498432
0.003849 -0.382659 0.193025
-0.006712 0.135398 0.383074
-0.090203 -0.774282 0.261824
0.051034 0.061246 0.166619
-0.050976 0.057476 0.289413
-0.082456 -0.488839 0.235914
0.019477 0.080839 -0.191625
0.031388 0.094822 -0.413594
-0.060397 -0.001469 -0.558587
0.017690 0.075778 -0.267144
-0.272153 0.240040 0.756237
-0.209487 0.220686 0.692253
0.046459 0.180208 -0.818448
0.046166 0.125702 -0.491772
0.050386 0.197071 -0.774877
-0.048916 -0.734042 0.250135
-0.048583 0.154402 0.443549
-0.108682 0.133810 0.491313
0.157293 0.255970 -0.084056
-0.014707 0.095311 0.256340
-0.027387 -0.559230 0.259436
0.055074 0.050514 0.125886
0.173271 0.242416 -0.062680
-0.014987 -0.541224 0.261875
-0.050790 -0.348961 0.181760
0.151348 0.237506 -0.090437
0.015694 0.075349 -0.208010
-0.076147 -0.597171 0.268634
-0.077077 0.118593 0.416746
-0.038696 -0.304641 0.148903
0.345366 0.367268 -0.004257
0.021096 0.101452 -0.386307
0.030502 0.077055 -0.328082
-0.061457 0.082457 0.330917
0.031631 0.164250 -0.666035
0.034608 -0.079571 -0.033692
0.006371 0.078030 0.086624
-0.049709 -0.501772 0.236873
0.034714 0.050460 0.180591
0.251913 0.319759 -0.023609
0.036813 0.091080 -0.364348
0.065016 0.171221 -0.228571
-0.015142 -0.337304 0.169658
-0.052048 0.062037 0.292460
0.045084 0.177492 -0.810229
-0.014412 -0.013086 -0.568543
0.045423 0.057142 0.068410
-0.049906 -0.630114 0.261570
-0.104847 0.212523 0.560609
-0.020668 -0.573063 0.260158
0.004205 0.070377 -0.265644
0.020053 0.095288 -0.333091
0.028953 0.135423 -0.480760
0.016089 0.077227 -0.083773
-0.232380 0.233294 0.714634
-0.024379 -0.191117 0.069961
0.172627 0.252525 -0.067517
0.068262 0.205118 -0.182288
0.002668 0.079902 0.124874
-0.128557 0.189619 0.569824
-0.049016 0.168014 0.464898
0.032755 0.069776 0.134981
-0.037540 -0.575872 0.257800
-0.085914 0.116588 0.423762
-0.118897 -0.862636 0.250396
-0.117598 -0.850905 0.257570
-0.237210 0.213318 0.742837
-0.040652 -0.039158 -0.553506
-0.345019 0.257250 0.802118
-0.043347 -0.125769 0.022950
-0.007095 -0.051997 -0.067779
-0.024713 -0.065237 -0.052096
0.047053 0.136488 -0.558523
0.020700 0.074732 -0.611606
-0.017935 0.071064 -0.597332
-0.142224 -0.929881 0.221334
-0.049386 -0.024095 -0.557067
0.055150 0.187752 -0.774600
-0.041575 -0.643825 0.263204
-0.023846 -0.142206 0.032158
0.132092 0.175247 -0.176375
-0.017979 0.074566 0.185314
-0.059594 -0.553920 0.252560
-0.016975 -0.201377 0.071554
-0.174645 0.224680 0.649927
-0.088893 -0.676624 0.281817
0.108675 0.195444 -0.168730
0.040911 0.040165 -0.066229
0.025763 0.130293 -0.493014
-0.008202 0.022447 0.027173
-0.058094 0.128666 0.400633
-0.060564 -0.469273 0.226702
0.039212 0.065156 0.119459
-0.074933 -0.469350 0.227380
-0.031429 0.048031 0.153950
-0.026508 -0.095318 -0.014914
-0.088256 -0.798238 0.252666
0.026033 -0.163649 0.065685
0.025293 0.109486 -0.463538
0.060585 0.132147 -0.337270
0.018976 0.077058 -0.303609
0.046797 0.135105 -0.568628
0.033537 0.038796 -0.093309
-0.037124 0.050472 0.216447
0.038203 0.066769 -0.071754
-0.017948 0.051885 0.085949
-0.065660 0.161786 0.468019
-0.054589 -0.470666 0.226778
-0.031018 0.041261 0.141822
-0.026955 0.107252 0.311102
0.032154 0.089574 -0.239339
-0.015839 0.052362 0.076452
0.092783 0.135659 -0.266175
0.009632 0.074864 -0.023342
-0.007791 -0.137353 0.014471
0.001763 -0.389501 0.197241
0.027282 0.054991 0.151731
-0.031599 0.167775 0.452125
-0.063985 -0.648957 0.261634
-0.127905 0.140934 0.533651
0.096954 0.175531 -0.203909
0.032186 0.089044 -0.383649
-0.038595 0.128869 0.381630
0.241214 0.349480 -0.041142
-0.012505 0.064437 0.114310
0.011573 0.036382 -0.083544
0.029314 0.146631 -0.613663
0.006089 0.062917 -0.094202
0.027743 0.131998 -0.380109
-0.142321 0.150436 0.574724
0.144610 0.214018 -0.105994
-0.042155 -0.173233 0.070333
0.046591 0.123827 -0.497094
0.224081 0.352891 -0.044778
0.255168 0.335954 -0.031200
-0.053167 -0.543660 0.248002
0.042625 0.130096 -0.560763
0.012128 0.056701 -0.008653
0.021425 -0.275663 0.140832
-0.183555 0.200012 0.662747
0.239991 0.311542 -0.027430
0.027129 0.073884 0.144693
0.234274 0.296720 -0.021472
0.231615 0.352004 -0.042615
