-0.141196 0.018936 0.277182
-0.005557 0.072335 -0.120523
-0.074757 0.069207 0.080032
-0.127818 0.100398 0.183627
0.341122 -0.124026 -0.190698
0.184441 -0.114837 -0.085408
-0.201407 -0.161072 0.542436
-0.291432 -0.091099 0.551988
0.352761 -0.133433 -0.175263
-0.231109 -0.058099 0.445948
0.140872 0.067970 -0.391168
0.109970 0.067700 0.429812
-0.058125 0.022647 0.159235
0.017939 0.012610 0.110754
0.075765 0.091939 0.323736
0.063536 0.073307 0.167351
0.043804 0.124536 -0.748982
0.145800 -0.017897 -0.288130
0.013277 0.133372 -0.837085
0.347267 -0.177929 -0.085547
0.149257 -0.071464 -0.187229
-0.289759 -0.182942 0.588470
0.255530 -0.130957 -0.136390
0.032371 0.035047 -0.426355
0.010510 0.138464 -0.972184
-0.192343 -0.044694 0.399019
-0.204685 0.046184 0.331726
0.261463 -0.093140 -0.202496
0.160776 -0.064740 -0.212253
0.017382 0.165474 -0.882954
0.019262 0.133296 -0.937041
0.155359 -0.020982 -0.286958
0.280636 -0.161414 -0.092823
0.293752 -0.066969 -0.259957
-0.013712 -0.033879 0.256091
-0.003559 -0.041623 0.268424
0.000511 -0.034185 0.236948
0.196331 -0.115124 -0.127988
0.006999 0.118288 -0.604758
0.039850 0.134258 -0.926863
0.066403 0.051920 0.261179
0.072955 0.067402 0.222440
-0.301028 -0.203100 0.614450
0.045371 0.130309 -0.291140
-0.168667 -0.126399 0.504437
-0.353864 -0.231582 0.672123
0.052419 0.105694 -0.514531
-0.089217 -0.071463 0.407734
0.312682 -0.073579 -0.272219
-0.189353 -0.079843 0.441332
-0.034712 0.135662 -0.073062
-0.274847 -0.067522 0.500862
-0.084624 0.135364 0.070632
0.049845 0.112862 -0.553147
0.076095 0.060457 0.259687
-0.091250 0.067917 0.131506
-0.190750 0.060060 0.299371
0.246657 -0.141544 -0.120225
-0.151819 -0.080791 0.435923
0.204075 -0.084485 -0.194043
0.175763 -0.094587 -0.154410
-0.143818 -0.032689 0.353207
0.024834 0.001262 -0.355335
-0.338765 -0.271238 0.690231
-0.323641 -0.277695 0.707240
-0.104843 -0.087968 0.439744
0.158724 -0.065834 -0.205427
-0.273714 -0.166214 0.562027
0.002764 0.119834 0.066008
-0.027361 0.083956 -0.119598
0.156226 -0.064357 -0.205233
-0.117105 -0.092804 0.448092
-0.131847 -0.122508 0.510177
-0.260855 -0.082350 0.496669
-0.098416 0.018405 0.228921
0.147872 -0.064749 -0.198394
0.011017 -0.027405 0.208707
0.234372 -0.051529 -0.254503
0.025648 0.193403 -0.981341
0.255362 -0.057159 -0.248737
0.220686 -0.093355 -0.189079
0.044401 -0.006818 -0.295612
-0.099225 0.024952 0.221279
-0.002794 0.081179 -0.169140
-0.029868 0.057001 -0.013196
-0.233555 -0.117056 0.494169
-0.050126 -0.046878 0.329960
0.006483 0.195797 -0.937596
0.046624 0.114017 -0.267488
0.288265 -0.052783 -0.279491
0.047140 0.112482 0.230122
-0.001941 0.155187 -0.145723
-0.103765 -0.062470 0.396279
0.083353 -0.034437 -0.200691
0.028984 0.158627 -0.704897
0.071531 -0.022857 -0.241093
-0.115977 -0.032581 0.345178
-0.031449 0.064920 -0.049556
0.263370 -0.050776 -0.264560
0.045201 0.096437 -0.175710
0.056827 0.111550 -0.109637
0.032906 0.082717 -0.158153
0.063549 0.085494 -0.485465
-0.131824 -0.058538 0.392398
0.007189 0.129576 -0.493147
-0.172360 -0.047215 0.392317
0.252745 -0.044083 -0.267380
0.359873 -0.140545 -0.164463
-0.282798 -0.164116 0.567459
-0.081770 -0.011416 0.278924
-0.349042 -0.248157 0.674621
0.144365 -0.061757 -0.201414
-0.176183 0.058561 0.285315
0.018591 0.110403 -0.586055
0.093701 0.082298 0.390740
-0.181477 0.077367 0.283110
0.267648 -0.012129 -0.313865
-0.244246 -0.172225 0.553396
-0.006245 0.024523 0.089653
0.096821 0.053732 0.378507
0.158712 -0.035135 -0.268870
0.040728 0.115024 -0.422595
0.088688 0.084369 0.377313
0.004816 0.159014 -0.878338
0.267070 -0.156341 -0.057419
0.223827 -0.105432 -0.166252
0.109316 0.083001 -0.419743
0.055759 0.076755 -0.019077
-0.020652 0.096685 -0.175583
0.074420 -0.018841 -0.256550
0.032650 0.022024 -0.397108
-0.088566 0.114589 0.072430
0.253063 -0.119202 -0.153273
0.044291 -0.001850 0.127304
0.139391 -0.087644 -0.121863
0.070883 0.069620 0.207906
-0.067093 -0.071487 0.404377
0.128281 0.084122 -0.409837
-0.235146 -0.203350 0.618454
-0.008537 0.125217 -0.295587
-0.285410 -0.183710 0.585376
-0.079427 -0.008076 0.265731
0.066163 0.082978 0.191977
0.157447 -0.091258 -0.136558
0.095470 0.028223 -0.358712
0.213335 -0.108414 -0.158590
0.229365 -0.014960 -0.296357
0.170942 -0.097267 -0.145106
-0.255092 -0.182468 0.568732
0.299881 -0.143159 -0.135093
0.105244 0.080233 -0.421132
-0.221518 -0.052194 0.430345
0.032788 0.004490 0.116075
-0.042648 -0.006978 0.227734
0.071842 0.095972 0.318864
-0.234869 -0.200122 0.624892
0.007986 -0.024168 0.205789
-0.113955 0.106612 0.144380
0.113880 0.048106 -0.383064
0.274237 -0.020002 -0.310233
-0.348275 -0.255258 0.679811
-0.163819 -0.011299 0.336179
-0.236155 -0.178414 0.561423
0.033195 0.148270 -0.363176
0.047951 0.106234 0.043296
-0.034041 -0.054562 0.335301
-0.334334 -0.283401 0.721725
-0.130202 -0.028679 0.337424
-0.243572 -0.033079 0.435237
0.050854 0.134445 -0.178568
0.018077 0.160157 -0.791611
-0.026997 -0.031522 0.270038
0.086285 -0.031061 -0.222212
0.012633 0.111184 -0.478829
0.264078 -0.085211 -0.215129
0.029706 -0.000180 0.126855
0.009913 0.035279 0.043388
-0.030558 0.070773 -0.081647
-0.307328 -0.143535 0.588245
0.021627 0.127374 -0.043803
-0.284201 -0.080101 0.524781
-0.001158 0.137309 -0.349448
0.008627 -0.040175 0.243066
0.004564 0.047580 0.006822
0.043886 0.151912 -0.851297
0.008734 0.120436 -0.536301
-0.052563 0.041396 0.092366
0.109935 0.067789 0.431041
0.045862 0.211768 -0.933898
0.044530 0.079485 -0.078792
0.213623 0.063819 -0.359531
-0.040815 0.056957 0.020098
-0.278586 -0.141509 0.545151
0.216549 0.036963 -0.340235
-0.022179 0.106032 -0.183495
-0.172147 -0.039222 0.382323
0.059511 0.058513 0.034584
0.269276 -0.065262 -0.245242
0.239708 -0.006788 -0.304616
0.112955 0.066877 0.453413
0.236625 -0.146020 -0.091321
0.158176 -0.064050 -0.214594
-0.034661 0.048896 0.049039
0.114889 0.092293 -0.423589
0.041796 0.156683 -0.741515
0.007209 0.153359 -0.248861
0.053734 0.094319 0.087203
-0.024347 0.061765 -0.041918
-0.210062 -0.042531 0.411153
-0.010974 0.096982 -0.259205
0.315815 -0.159267 -0.112844
-0.188263 -0.130232 0.500322
-0.028185 0.000817 0.188438
0.064642 0.102803 -0.058542
0.239161 0.021620 -0.335474
0.046964 0.134170 -0.345807
0.230822 -0.142082 -0.087986
0.028204 0.149354 -0.444658
0.093851 0.089817 -0.443813
-0.208820 0.005537 0.369790
0.097322 0.079077 0.396449
-0.021132 -0.030458 0.261105
0.097125 0.040217 -0.379665
0.011308 0.122824 -0.690742
-0.199586 0.035863 0.330942
-0.083385 0.120640 0.062047
0.328627 -0.176980 -0.077531
-0.315651 -0.186073 0.615900
0.160372 -0.093136 -0.131075
0.323940 -0.178975 -0.040413
0.253503 -0.049241 -0.259826
-0.239119 -0.122700 0.502031
0.037363 0.158651 -0.939215
0.056269 0.075565 0.107212
0.153179 -0.050661 -0.237025
-0.056233 0.044864 0.077137
-0.040039 0.009094 0.182766
0.326020 -0.089980 -0.257399
0.012056 0.135169 -0.896432
0.084090 -0.000155 -0.305415
-0.215045 -0.077888 0.448417
0.216655 -0.064039 -0.238824
-0.242356 -0.001496 0.416166
0.028207 0.056817 -0.466732
0.053238 0.096614 -0.088147
-0.274898 -0.069064 0.501699
0.242755 -0.037357 -0.275078
0.000941 0.120162 -0.424169
0.030708 0.159621 -0.714920
-0.183870 -0.084758 0.441360
-0.248301 -0.010632 0.424499
0.106814 0.117585 -0.451955
0.027814 0.058105 -0.027051
0.176979 -0.110549 -0.102918
-0.298622 -0.125037 0.570069
-0.090019 0.137240 0.081132
-0.251895 -0.158517 0.538750
0.046222 0.061355 -0.442256
-0.096606 0.085298 0.116546
0.190216 -0.047112 -0.256565
0.109627 0.048945 -0.386606
0.186733 -0.099033 -0.155743
0.017844 -0.004867 0.149881
-0.026039 0.089778 -0.133331
-0.254919 -0.021980 0.436740
0.053159 0.095521 -0.098705
-0.065936 0.018252 0.183168
-0.064095 0.068672 0.058337
0.010332 0.120922 -0.645997
-0.181285 -0.044841 0.391586
-0.147696 0.105470 0.233830
-0.193515 -0.014927 0.370698
0.321563 -0.176482 -0.078289
0.249867 -0.131891 -0.134728
0.016408 -0.011304 0.159928
0.128096 0.014441 -0.337911
0.126357 0.068086 -0.396082
0.132759 -0.019473 -0.283737
-0.104378 -0.056942 0.385853
-0.014374 -0.017462 0.216828
0.078305 0.051216 -0.395516
-0.029826 0.087641 -0.117026
-0.016700 0.118492 -0.228971
0.216804 0.057323 -0.354917
-0.219743 -0.149542 0.526482
-0.075805 0.075460 0.075467
-0.224136 -0.154002 0.531308
-0.245223 -0.080294 0.475673
-0.285272 -0.124965 0.547668
-0.206607 -0.158293 0.538669
-0.196702 0.036238 0.327353
-0.042922 -0.010494 0.234710
-0.245057 -0.121565 0.503001
0.311757 -0.113744 -0.195111
-0.004296 0.114735 0.058702
0.322749 -0.164449 -0.112635
0.290636 -0.168542 -0.051120
0.007858 0.142708 -0.438718
-0.028570 0.055467 -0.012230
0.049305 -0.006775 -0.292704
-0.244110 -0.077633 0.474183
0.053259 0.087740 0.070809
-0.045505 -0.018977 0.257058
-0.160960 -0.100117 0.460409
-0.252941 -0.034022 0.447053
0.171873 -0.108696 -0.094149
-0.022776 0.155260 -0.053236
-0.154347 -0.082545 0.438042
0.034270 0.029314 -0.412479
-0.045192 -0.056279 0.350960
-0.222219 -0.072760 0.448637
0.000918 0.059527 -0.056938
0.074462 0.089198 0.263454
-0.285277 -0.221452 0.625677
-0.335679 -0.280153 0.720724
0.014959 0.134919 -0.946570
-0.035036 0.004399 0.187826
-0.204186 -0.069483 0.436123
0.081455 0.086364 0.302792
0.100737 0.122050 -0.461816
0.313441 -0.119405 -0.182515
0.041493 0.151117 -0.897184
-0.171790 0.076837 0.272917
-0.164996 -0.139802 0.525427
-0.055204 0.003550 0.213574
-0.088845 0.109925 0.078718
-0.040746 -0.041638 0.308425
0.011703 0.045553 0.005773
0.157779 -0.057483 -0.230238
-0.036832 -0.008298 0.218357
0.177995 -0.103165 -0.131055
-0.146201 -0.034842 0.357235
0.049133 0.126803 -0.339060
-0.101638 -0.070202 0.407838
-0.078555 -0.019206 0.294010
0.274540 -0.100548 -0.196488
0.244429 -0.039173 -0.269018
0.047938 0.094978 -0.121582
0.016097 0.115161 -0.536375
0.302408 -0.153637 -0.114631
0.025649 0.046675 -0.460109
-0.133177 0.023358 0.266281
-0.024502 -0.034767 0.274754
-0.266151 -0.055323 0.477659
0.035879 0.063753 -0.034937
0.015197 0.112440 -0.504173
-0.085152 0.022871 0.201201
-0.220086 -0.071514 0.446526
-0.009548 0.123243 -0.287455
0.039931 0.156926 -0.937517
0.072018 0.021077 -0.356264
0.013442 0.160423 -0.814526
0.293066 -0.165537 -0.046507
-0.105530 0.092121 0.132600
-0.268194 -0.029915 0.457034
0.136037 -0.073909 -0.157016
0.014989 0.123249 0.018583
-0.155360 0.078874 0.252893
0.177152 -0.090884 -0.164475
0.131752 -0.083731 -0.120269
0.329827 -0.122380 -0.183319
0.046459 0.157784 -0.528027
-0.149529 0.026590 0.279069
-0.241855 -0.208855 0.615284
0.244524 -0.147168 -0.105928
-0.213262 -0.023001 0.399848
0.245031 -0.151504 -0.099977
0.251532 -0.155595 -0.099400
0.042460 0.142205 -0.943182
-0.141288 -0.001036 0.305471
-0.320668 -0.189696 0.622561
-0.307945 -0.247366 0.662998
0.049835 0.126346 -0.634965
0.117511 0.111426 -0.441597
-0.102324 -0.104353 0.471724
-0.119276 -0.032811 0.341687
0.044446 0.082536 -0.093367
-0.050565 -0.068277 0.387178
0.357383 -0.158090 -0.121488
0.121118 0.129326 -0.455767
0.170785 -0.108447 -0.091390
0.050166 0.074941 -0.033524
0.120348 0.055499 0.481153
-0.198098 0.052007 0.316799
0.302095 -0.104661 -0.205931
0.054276 0.107853 0.217618
0.089416 0.034398 -0.371260
0.301191 -0.168111 -0.091344
0.049781 0.097474 -0.119172
-0.253185 -0.125125 0.514783
0.009310 0.149257 -0.300401
0.026119 0.131671 -0.938559
-0.252203 -0.204490 0.597007
0.046466 0.074175 0.030787
0.156956 -0.100712 -0.102728
-0.151552 0.066123 0.255960
-0.060886 0.109468 0.001017
0.146622 -0.049051 -0.242740
0.052502 0.080601 0.066605
-0.224023 -0.163545 0.543701
-0.179856 -0.116733 0.483942
0.141684 -0.081437 -0.141913
-0.172019 0.081532 0.271957
-0.164360 -0.074774 0.425271
-0.138392 0.012233 0.285559
0.019136 0.120446 0.078786
-0.054279 0.130360 -0.007938
0.231547 -0.138096 -0.115953
-0.200136 0.046006 0.326492
-0.092267 0.121906 0.085882
0.300829 -0.079686 -0.247889
0.316259 -0.146654 -0.143591
0.188531 -0.056559 -0.242671
0.192942 -0.057064 -0.243762
0.283709 -0.122538 -0.160410
-0.284188 -0.138997 0.551035
0.137292 0.044635 -0.371658
-0.169743 -0.140513 0.528343
-0.064663 -0.020645 0.285515
-0.029897 -0.011249 0.222354
-0.294315 -0.113020 0.557619
-0.147410 -0.007109 0.319442
-0.134884 0.064006 0.224285
0.028801 0.163598 -0.806395
0.223568 -0.132081 -0.051988
-0.192355 0.060705 0.303387
0.085097 0.076158 0.299665
0.050756 0.085025 0.035620
0.211149 -0.130509 -0.094921
0.042699 0.139183 -0.938033
-0.038554 0.097111 -0.075316
-0.146250 -0.001668 0.309688
0.092445 0.056259 0.375478
0.252424 -0.132242 -0.133855
0.328312 -0.152092 -0.136893
0.001895 -0.039679 0.253880
-0.206269 0.050760 0.329999
-0.137885 0.032790 0.260197
0.015251 0.153801 -0.703096
-0.129219 -0.110186 0.480982
-0.110582 -0.020155 0.315748
0.036932 0.031894 -0.410710
-0.227942 -0.091234 0.470905
0.049786 0.072559 -0.022253
0.059227 0.087257 0.133740
-0.013856 0.162740 -0.046975
0.236464 -0.097944 -0.181174
0.015892 0.090888 -0.259306
0.001047 0.107353 -0.390993
-0.193332 -0.032903 0.388278
-0.026394 0.093239 -0.136047
0.110280 0.127900 -0.459211
-0.072581 -0.065547 0.390612
0.280384 -0.136318 -0.140592
0.185292 -0.110357 -0.120050
-0.204391 -0.144476 0.517862
0.267944 -0.001369 -0.327161
-0.172256 -0.007430 0.337706
-0.076489 -0.000094 0.249608
-0.194938 -0.076355 0.438395
0.271293 -0.101409 -0.188164
0.215133 -0.006676 -0.302443
0.012710 0.154958 -0.728894
0.284393 -0.168940 -0.079951
-0.180873 0.076084 0.282802
-0.095518 0.067510 0.134533
0.094333 0.077833 -0.429860
0.006587 0.130833 -0.702853
0.103882 -0.057697 -0.161937
0.191967 -0.051359 -0.251327
0.011202 0.163264 -0.884905
-0.004467 -0.014430 0.198100
0.356883 -0.136236 -0.176994
-0.261982 -0.204843 0.599479
-0.080514 -0.017127 0.292546
-0.075918 -0.013940 0.282253
0.028283 0.210819 -0.912349
0.089191 0.098186 -0.452743
-0.122865 -0.096005 0.456519
-0.088177 -0.028303 0.321607
-0.006006 0.030371 0.073880
0.054202 0.085447 -0.483111
-0.110960 -0.075244 0.415140
-0.297833 -0.252533 0.677783
0.030242 0.150010 -0.329874
-0.209902 0.024321 0.357899
-0.088916 0.111274 0.078599
-0.008207 -0.042892 0.274247
-0.139169 -0.072179 0.419597
-0.006738 -0.018874 0.209958
0.139443 -0.083689 -0.134541
0.056197 0.084527 0.095083
-0.072071 0.002242 0.234819
0.367295 -0.175139 -0.083062
0.043140 0.117276 -0.619912
-0.014882 0.152608 -0.105463
0.164734 0.031087 -0.346422
0.210106 -0.084890 -0.200790
0.058131 0.096456 0.166202
-0.326394 -0.173288 0.627976
-0.028277 -0.044401 0.298179
0.283307 -0.145294 -0.125551
-0.046048 0.086150 -0.027514
0.239525 -0.102622 -0.175959
0.012814 0.118101 0.113133
0.035617 0.134677 -0.982772
-0.091395 0.137622 0.083644
0.299943 -0.143699 -0.134982
-0.217547 -0.074750 0.447485
0.010287 0.122155 0.071240
0.022308 0.115449 -0.675451
-0.118412 0.070811 0.185132
-0.106830 0.007071 0.262238
0.270886 -0.163316 -0.084412
-0.013155 -0.039717 0.272986
-0.009455 0.158414 -0.071979
0.249824 -0.027732 -0.286100
0.110337 0.063872 0.432729
0.075205 0.106916 -0.477588
0.092541 -0.024307 -0.253656
0.024686 0.168418 -0.881579
0.171624 0.038697 -0.353405
-0.058049 -0.073332 0.411921
-0.048963 -0.051288 0.335089
-0.095587 -0.001459 0.269385
-0.170690 -0.151728 0.552986
-0.058841 -0.016865 0.271980
0.027826 0.162845 -0.152832
0.296526 -0.136631 -0.146998
0.167134 -0.060686 -0.231159
0.081564 0.075773 0.283401
-0.178879 -0.141504 0.524850
-0.218768 -0.092290 0.463245
0.113535 -0.012526 -0.293130
-0.226085 0.007843 0.395116
-0.217073 -0.048984 0.425781
-0.008661 0.121083 -0.291569
0.118436 0.055541 0.487203
-0.140214 -0.069811 0.416358
0.119519 0.061645 0.465624
-0.003423 -0.045510 0.272122
0.058339 0.103836 0.212854
-0.154031 0.095112 0.248991
0.013596 0.138893 -0.899647
-0.138389 0.020414 0.272899
0.050110 0.139853 -0.155846
0.049828 0.101377 0.066497
0.018684 0.134063 -0.969715
-0.076496 0.073429 0.079608
-0.065736 0.017526 0.192631
0.187704 -0.108032 -0.142594
-0.240435 -0.027229 0.429684
0.277579 -0.058481 -0.260904
0.025194 0.130230 -0.892079
0.132551 0.056251 -0.381106
-0.241677 -0.194952 0.580443
0.057199 0.103102 0.161129
-0.044814 -0.021096 0.268020
0.154871 -0.038498 -0.262954
-0.195291 -0.006894 0.362651
0.136569 -0.037595 -0.250469
0.076879 0.054949 0.331524
-0.099558 0.116892 0.105009
0.189678 -0.059361 -0.242918
0.006782 0.130940 -0.554472
0.301868 -0.070430 -0.259998
-0.044745 0.042339 0.078833
-0.191001 0.048118 0.308861
0.139663 0.097925 -0.414948
0.168057 0.087025 -0.389429
-0.346077 -0.291968 0.718402
-0.052901 0.064830 0.030323
0.146134 0.071264 -0.391738
-0.029703 0.062040 -0.036249
0.285725 -0.153972 -0.036794
0.026016 0.163936 -0.819642
0.036776 -0.007956 -0.300208
0.126300 0.084293 -0.410063
-0.004788 0.045065 0.013312
-0.217202 0.015690 0.377622
0.037655 0.135980 -0.983435
0.134386 -0.064677 -0.178887
-0.172666 0.062500 0.280741
-0.102957 0.110440 0.114316
-0.052809 0.070337 0.017762
0.370034 -0.153264 -0.137804
0.046797 0.142292 -0.667465
-0.083744 0.003769 0.244412
-0.058532 -0.022142 0.280939
0.008316 0.146804 -0.844496
-0.260877 -0.215734 0.615508
-0.155059 -0.108339 0.475760
0.048030 0.137726 -0.773947
0.029840 0.168659 -0.924584
-0.020721 0.078224 -0.137074
0.123945 -0.064606 -0.165691
0.017498 0.156669 -0.711777
0.046629 0.012955 -0.355680
-0.289973 -0.127123 0.559428
0.020268 0.149313 -0.378577
-0.304797 -0.249258 0.666696
0.183878 -0.072955 -0.212552
-0.129760 0.021549 0.261317
-0.338175 -0.214633 0.648870
0.265672 -0.118388 -0.160602
-0.003623 0.080341 -0.158745
0.265723 -0.096987 -0.198350
-0.080204 0.116036 0.052103
-0.103527 0.148240 0.107905
0.344337 -0.166440 -0.113360
-0.152824 0.086796 0.248653
-0.234751 -0.026185 0.423872
0.166757 -0.075626 -0.189563
0.265851 -0.041798 -0.280404
-0.195398 -0.004250 0.360252
-0.171042 -0.123999 0.499614
0.291746 -0.170073 -0.050744
0.230832 -0.077280 -0.220793
-0.006633 0.033332 0.064936
-0.182417 -0.032242 0.379809
-0.324347 -0.200797 0.630882
-0.194682 0.045352 0.318817
-0.180572 -0.128448 0.503585
-0.221176 0.015650 0.385303
-0.078734 0.088286 0.071833
0.036064 0.075644 -0.090325
-0.162300 0.012439 0.304996
-0.122132 0.099000 0.168725
-0.217041 -0.147339 0.523019
-0.205386 -0.122829 0.491496
0.315127 -0.145627 -0.145348
-0.150034 -0.027695 0.354956
0.285332 -0.126454 -0.155550
0.198225 -0.120058 -0.096447
-0.046549 -0.066152 0.376622
-0.212456 0.043798 0.349367
-0.137548 -0.128179 0.517910
-0.018774 -0.006648 0.196021
0.051775 0.107772 0.211781
-0.245059 -0.092590 0.480889
0.083084 0.020977 -0.352221
-0.258993 -0.100336 0.502932
-0.012482 0.106660 -0.258102
-0.150242 -0.014523 0.331810
-0.090157 0.092731 0.092989
0.167952 0.092918 -0.392095
0.105754 0.067831 0.409506
0.251213 -0.145559 -0.051529
-0.288283 -0.120673 0.550473
-0.166442 -0.128117 0.508051
-0.021910 0.144466 -0.113326
0.094833 0.080384 0.382266
-0.253516 -0.090810 0.491414
0.031135 0.146382 -0.446866
0.272640 -0.149801 -0.110765
0.327271 -0.152337 -0.135317
-0.098186 0.111777 0.104615
0.222687 -0.138905 -0.097269
-0.007072 0.142058 -0.233912
0.043013 0.094492 -0.175018
-0.183603 -0.046208 0.398442
-0.054951 -0.042049 0.318882
-0.057973 0.154720 0.024523
-0.123077 0.081366 0.184209
-0.318815 -0.150187 0.614768
-0.104796 0.033389 0.213404
-0.042254 -0.065156 0.370589
-0.277990 -0.200746 0.598532
0.056652 -0.009112 -0.283781
-0.336308 -0.277722 0.700288
-0.204011 0.026388 0.346135
0.005309 0.125074 -0.008398
-0.119148 0.126781 0.146432
-0.004312 0.138611 -0.292650
-0.164804 -0.043705 0.385061
0.298836 -0.146802 -0.127475
0.040972 0.152039 -0.905548
0.340944 -0.129560 -0.177767
0.050453 0.111346 -0.523694
0.320968 -0.112009 -0.196243
-0.235567 -0.113744 0.489811
0.193939 -0.116773 -0.104188
0.140423 0.070023 -0.392493
0.041459 0.147810 -0.225256
0.024553 0.123152 -0.005483
0.110947 0.090422 -0.424828
0.029314 0.150914 -0.327936
-0.239152 -0.094912 0.479443
0.365457 -0.152281 -0.134617
0.019146 0.120076 0.087810
-0.068624 -0.001253 0.237868
-0.064386 0.081079 0.035526
0.048398 0.113049 -0.559026
0.094983 0.077804 0.381783
0.156887 -0.018332 -0.294614
0.011701 0.199870 -0.949893
0.204260 -0.103949 -0.161111
0.196469 -0.064603 -0.238063
0.121657 -0.066351 -0.160455
0.003518 0.150433 -0.234639
-0.073936 0.075583 0.073384
0.006486 0.030708 0.063932
0.199092 0.015643 -0.326066
-0.117911 0.008151 0.270356
0.272647 -0.145857 -0.116298
-0.178759 0.021243 0.314705
0.069992 0.053366 0.269086
0.265558 -0.152708 -0.048998
-0.257561 -0.026345 0.444280
0.012819 0.121179 0.058793
-0.061912 -0.000277 0.233255
0.048350 0.181878 -0.975369
0.044334 0.142121 -0.864721
0.059298 0.088754 0.143982
0.015192 -0.035407 0.223353
0.035864 0.134690 -0.968901
0.220940 -0.135490 -0.105511
0.083881 0.064733 -0.417008
-0.052030 -0.010252 0.248174
-0.247806 -0.170176 0.549345
-0.238311 -0.097172 0.481505
-0.303253 -0.121334 0.577948
0.259357 -0.139125 -0.125976
0.136614 -0.085797 -0.124754
0.198571 -0.104779 -0.158093
0.162380 -0.107219 -0.094918
0.288191 -0.158480 -0.098944
0.149437 -0.028443 -0.270981
-0.152240 0.074032 0.248791
0.198527 -0.043525 -0.260430
0.037872 0.137376 -0.982860
-0.215660 0.001949 0.384287
0.017782 0.158791 -0.767027
-0.155946 0.097549 0.251752
0.037114 0.134669 -0.954149
-0.045302 -0.026116 0.275092
-0.158131 0.088279 0.255084
0.301194 -0.114395 -0.189800
-0.038839 -0.038093 0.300582
0.171971 -0.045149 -0.259394
0.035417 0.117579 0.192908
0.148213 -0.018161 -0.288612
-0.236705 -0.202406 0.608201
0.177976 -0.098335 -0.151048
-0.107901 -0.075978 0.415450
0.038394 0.117994 -0.630085
-0.134684 -0.016025 0.327165
-0.054655 -0.001929 0.229328
0.060283 0.066996 0.017434
-0.094797 -0.025187 0.319306
-0.167101 -0.045461 0.385034
-0.010950 -0.029373 0.244178
-0.290941 -0.105719 0.549752
0.078412 0.019759 -0.351400
0.034849 0.006625 -0.352887
-0.073299 -0.002118 0.250193
0.104457 -0.052217 -0.175894
0.065500 0.098776 0.278395
-0.183063 -0.080707 0.439228
0.009580 0.186738 -0.944195
0.225375 -0.122801 -0.139588
0.056503 0.116895 -0.118972
0.305883 -0.177144 -0.048670
0.030944 0.168013 -0.888055
-0.127456 -0.086593 0.438717
0.228314 -0.086512 -0.207724
0.017200 0.158958 -0.169512
-0.151714 0.048031 0.267226
0.160636 -0.099387 -0.114616
0.045001 0.134324 -0.810053
-0.031267 -0.019236 0.243695
0.240591 -0.095069 -0.188579
0.299238 -0.159963 -0.034416
0.204711 -0.105968 -0.156856
-0.213642 -0.045762 0.420966
-0.038988 0.030884 0.104704
0.336396 -0.108970 -0.219727
-0.226322 -0.196421 0.606917
0.144831 0.052510 -0.373739
-0.007881 0.117561 0.016892
-0.144692 -0.015039 0.331443
-0.274043 -0.069047 0.501830
-0.228398 -0.098135 0.478199
-0.050606 0.006378 0.202042
0.118169 -0.041975 -0.222281
0.008326 0.144992 -0.381034
-0.004987 0.070919 -0.112245
-0.116084 -0.074640 0.418929
0.067409 0.093586 0.316288
-0.259126 -0.220615 0.635821
-0.274548 -0.069412 0.503526
-0.208873 -0.014135 0.385014
-0.006872 0.047314 0.001654
0.315765 -0.148513 -0.138502
-0.299466 -0.163985 0.583592
0.057352 0.083179 -0.025911
0.071618 -0.011417 -0.278389
0.074983 0.055166 0.310568
0.268155 -0.058580 -0.259364
0.008867 0.158728 -0.842882
0.165957 -0.068230 -0.205534
-0.156034 -0.128256 0.511020
0.014377 0.114501 -0.595656
0.055152 -0.011123 -0.274940
0.054727 0.114734 -0.129311
-0.097526 0.006839 0.247028
-0.167534 -0.143439 0.531116
-0.230564 -0.035552 0.427925
0.034043 0.115813 0.098541
-0.268912 -0.162884 0.556500
0.019260 0.021447 0.083333
0.029733 0.129110 -0.120332
-0.176758 -0.034958 0.380659
0.031641 -0.004341 0.135242
-0.350697 -0.227888 0.667808
-0.033977 0.048887 0.044767
0.211463 0.022982 -0.334172
0.153628 0.108060 -0.409371
-0.033566 -0.018262 0.245890
-0.145165 0.039180 0.265413
-0.041035 -0.026886 0.275816
0.233400 -0.137743 -0.047365
0.144621 0.084341 -0.399932
-0.351913 -0.246595 0.676446
-0.336439 -0.183621 0.639607
-0.120455 -0.028843 0.334992
-0.039079 0.036614 0.093866
0.110164 0.036135 -0.377285
-0.276828 -0.091108 0.521564
0.003854 0.106618 -0.385534
-0.068005 -0.055770 0.363100
-0.027761 0.021643 0.120103
-0.279127 -0.188956 0.583846
0.209995 -0.073984 -0.218462
-0.114465 -0.079706 0.427834
-0.057452 0.050979 0.065766
0.069719 0.083182 0.211994
-0.336794 -0.222311 0.651985
0.006237 0.160209 -0.860903
0.304832 -0.132891 -0.159280
0.072081 0.053846 0.291435
0.058926 0.124508 -0.115582
-0.321742 -0.239898 0.653902
0.031645 0.160359 -0.711792
0.101933 -0.011046 -0.287356
-0.010986 0.132337 -0.265650
-0.256504 -0.119555 0.511250
0.007251 0.038379 0.039093
-0.040973 -0.017197 0.250431
0.203682 -0.126193 -0.082609
-0.014650 0.086484 -0.201392
0.037232 0.156177 -0.625305
0.200971 -0.103642 -0.160687
0.359946 -0.136728 -0.172604
0.157234 0.100215 -0.402850
0.232244 -0.096399 -0.182789
0.050929 0.070798 0.088382
0.165387 0.036920 -0.356457
0.003652 0.138848 -0.408073
0.015117 0.099245 -0.530687
-0.246281 -0.100099 0.491577
0.014856 0.152223 -0.665953
0.006456 0.138722 -0.628706
0.029445 0.149173 -0.358203
0.218632 0.009221 -0.317826
0.110692 0.035377 -0.363690
-0.137600 -0.031985 0.346848
-0.335866 -0.284381 0.720916
-0.147565 0.070823 0.243361
0.006293 0.149373 -0.862963
0.290604 -0.154159 -0.106860
0.098141 0.056845 -0.398664
0.016153 0.133093 -0.871594
-0.018925 0.127880 -0.205928
0.258700 -0.114037 -0.163938
-0.207016 -0.170461 0.556440
0.050460 0.068286 0.084058
-0.096810 0.072838 0.134791
0.046030 -0.002287 -0.307984
0.115855 0.063797 0.455021
-0.177323 -0.106059 0.471087
-0.173297 -0.049980 0.398086
-0.120998 -0.020522 0.318561
0.261544 -0.100483 -0.186220
0.325635 -0.175613 -0.036673
0.269098 -0.155332 -0.047042
-0.023276 0.149769 -0.080877
0.169011 -0.039660 -0.265758
-0.291483 -0.117748 0.554469
0.028888 0.166573 -0.905945
0.064641 0.098074 0.225353
-0.027261 0.014981 0.153488
0.049019 0.138072 -0.822946
-0.300477 -0.260984 0.696954
-0.061027 -0.068956 0.395528
-0.258297 -0.060887 0.474640
0.309226 -0.070328 -0.272772
0.218076 -0.130930 -0.114366
-0.283197 -0.181424 0.581034
-0.086094 0.139803 0.074435
-0.299845 -0.249264 0.693157
-0.146361 -0.027175 0.347701
0.294576 -0.126891 -0.160967
0.272678 -0.157489 -0.097676
-0.043877 -0.020295 0.263777
0.243672 -0.149481 -0.090265
-0.130937 -0.103278 0.470379
-0.013295 0.026777 0.094281
0.007184 0.149057 -0.969666
0.043706 0.152252 -0.853610
-0.140394 -0.129294 0.522775
0.312024 -0.146934 -0.140685
0.217926 0.063592 -0.359343
0.310460 -0.089620 -0.238882
0.238744 -0.143486 -0.067400
0.245285 -0.137020 -0.042047
0.062301 0.088387 0.172911
-0.099842 -0.058980 0.386554
0.137912 0.079646 -0.405095
-0.235629 -0.068018 0.457623
-0.102571 -0.096178 0.454432
-0.238358 -0.206774 0.634535
0.019371 0.121468 -0.741725
0.045682 0.137290 -0.334904
0.017399 -0.016681 0.175867
0.047272 0.123216 -0.651217
0.047832 0.106845 0.078880
0.132472 -0.037605 -0.246201
-0.021278 0.007416 0.160299
-0.267870 -0.040017 0.468323
-0.122561 0.046967 0.221138
0.134646 0.001372 -0.310561
0.020481 0.167158 -0.917781
0.027318 0.067024 -0.066571
0.097959 0.058719 0.400242
-0.034786 0.035526 0.079751
0.054180 0.085763 0.078187
0.006935 0.160145 -0.882497
-0.014405 0.105348 -0.243168
-0.106418 0.010092 0.252037
-0.116839 0.085752 0.162879
-0.081403 -0.069644 0.396848
0.044618 0.093613 -0.151781
0.045909 0.112640 0.165985
-0.002227 0.119573 -0.394813
-0.111076 0.059663 0.184567
-0.092577 0.078276 0.116978
-0.146609 -0.134408 0.529981
-0.118570 -0.063951 0.398686
-0.097222 0.095405 0.109857
-0.061034 0.149833 0.023751
-0.050453 0.099709 -0.029270
0.236999 -0.046823 -0.260828
0.011462 0.159726 -0.817652
0.013502 0.120957 0.065253
0.118798 -0.053916 -0.196278
0.062449 0.101213 -0.497681
-0.251834 -0.215046 0.644250
0.008247 0.162721 -0.881348
0.048642 0.138014 -0.663349
0.044835 0.000449 -0.323767
0.313967 -0.125959 -0.177868
-0.266489 -0.224572 0.656946
-0.093413 0.117895 0.088203
0.051769 0.105683 0.162270
0.341166 -0.126923 -0.176556
0.116837 -0.040212 -0.234639
0.065364 0.099874 0.286581
-0.119729 -0.027130 0.332234
0.248813 -0.136300 -0.041583
0.218807 -0.059943 -0.239896
0.001061 0.124178 -0.013803
0.105150 0.015764 -0.335114
-0.288826 -0.172138 0.577897
0.015398 0.113077 -0.513537
0.235828 0.017149 -0.326351
-0.038820 -0.008054 0.218575
0.319296 -0.083118 -0.267347
0.252619 -0.142168 -0.119892
0.200375 -0.124627 -0.074825
-0.018685 -0.009686 0.203323
0.018675 0.126002 -0.041185
0.221150 -0.081415 -0.208276
0.102337 -0.013616 -0.281971
-0.000685 0.129346 -0.389182
0.039569 -0.001609 0.125901
0.038972 0.159740 -0.837041
0.018598 0.127094 -0.059514
-0.347966 -0.262738 0.685984
0.162563 -0.092941 -0.139371
-0.073822 0.026469 0.177697
0.265334 -0.031694 -0.289352
0.006954 0.115464 -0.549225
-0.233638 -0.056174 0.448709
0.255197 -0.140077 -0.122636
0.134265 -0.059653 -0.200414
-0.001746 0.062552 -0.075042
-0.249860 -0.183900 0.566453
-0.004180 0.122272 0.015599
0.086796 -0.028964 -0.229329
-0.203412 0.033018 0.338581
0.173498 0.086162 -0.386639
-0.054522 0.103716 -0.013138
0.073399 0.090518 0.340658
0.227680 -0.112954 -0.156851
0.039435 0.113346 0.013420
-0.012731 0.144439 -0.174121
-0.120497 0.130915 0.147559
0.004806 0.079454 -0.528356
0.035355 0.233976 -0.899363
0.017101 0.028069 0.068485
-0.077939 0.049222 0.125903
-0.123977 0.089675 0.179875
0.167624 -0.079759 -0.185300
-0.223527 -0.193023 0.606347
-0.188930 -0.158469 0.547239
0.292419 -0.107537 -0.195804
0.206410 -0.045658 -0.260452
0.046057 0.127402 -0.727908
0.266734 -0.027744 -0.295254
-0.067314 0.047064 0.111931
0.367261 -0.162205 -0.115423
0.132595 -0.051972 -0.218326
-0.049287 0.119268 -0.035825
0.199112 -0.045779 -0.257810
-0.206047 -0.141295 0.516897
0.190453 -0.092906 -0.177079
0.197296 -0.004672 -0.305188
0.038098 0.162423 -0.815782
0.061751 0.100901 0.289908
0.055465 0.099199 -0.095342
0.176274 -0.074081 -0.207378
0.070296 0.092469 0.260176
-0.151401 -0.120983 0.496387
0.024450 0.170871 -0.928684
-0.339597 -0.281103 0.704423
0.024760 0.130430 -0.093509
0.049169 0.130819 -0.205620
0.099883 0.080609 -0.423969
-0.076767 -0.023187 0.296073
-0.206385 -0.134876 0.507612
-0.217498 -0.051998 0.426367
0.045139 0.126418 -0.292556
-0.184756 0.017457 0.325056
0.014388 0.200213 -0.925726
-0.054612 0.128778 -0.009058
0.060070 0.055992 0.175122
-0.144416 -0.030712 0.349953
0.096372 0.071500 0.370012
0.057345 -0.016570 -0.247201
-0.155908 -0.007281 0.329292
0.064035 0.093619 -0.499529
0.271711 -0.159373 -0.059553
0.266459 -0.162260 -0.075978
-0.167556 -0.090829 0.447889
0.316409 -0.182356 -0.054797
0.091456 0.067870 0.336021
-0.130971 0.043074 0.238914
-0.048253 0.044153 0.070716
-0.006246 0.164084 -0.993273
-0.014433 0.031566 0.070991
-0.006235 0.153272 -0.995049
-0.041573 0.052596 0.024872
0.051018 0.116347 -0.192921
-0.270261 -0.189127 0.582186
-0.166486 -0.031911 0.370034
0.037686 0.153911 -0.597598
-0.182079 -0.027192 0.371575
0.017999 0.158127 -0.750196
0.008131 0.140466 -0.645844
-0.314262 -0.147308 0.600779
-0.289956 -0.109379 0.548894
0.304065 -0.160929 -0.033846
0.281383 -0.168497 -0.066582
-0.011842 0.119184 -0.265601
-0.245353 -0.115650 0.502332
-0.012171 0.094110 -0.266407
0.045719 0.142834 -0.686557
0.046606 0.140485 -0.558072
-0.210161 -0.179881 0.592332
0.365154 -0.180743 -0.061791
0.058038 0.066788 0.012723
0.061587 0.114060 -0.090248
0.305259 -0.170278 -0.083255
0.096868 0.108953 -0.451797
-0.199438 -0.141784 0.518468
0.060515 0.066240 0.018652
-0.114937 0.107256 0.146891
-0.018870 0.055300 -0.025165
-0.198442 -0.002188 0.364409
0.116157 -0.069555 -0.139952
-0.013976 0.082067 -0.168725
0.090406 0.063031 -0.411494
-0.054867 0.009998 0.196507
-0.150809 -0.135039 0.531290
-0.069096 -0.078500 0.421181
0.029818 0.117342 0.086431
0.075858 0.092025 0.305709
-0.061228 0.113180 0.001336
-0.040643 -0.067448 0.367359
-0.280098 -0.196119 0.595125
0.137547 -0.050138 -0.228879
-0.022657 -0.007943 0.202800
0.018521 0.084558 -0.211542
0.245976 -0.147945 -0.105232
-0.096140 -0.038698 0.346409
0.074941 0.064685 0.243946
0.031280 0.149423 -0.342638
-0.034776 0.109814 -0.108754
-0.010950 0.044166 0.025547
0.007865 0.146712 -0.715327
0.183876 -0.030252 -0.276574
0.010615 0.151062 -0.691130
-0.131430 0.069180 0.207343
0.285463 -0.033642 -0.305986
-0.026114 0.012908 0.155449
-0.230167 -0.007840 0.406543
0.079904 0.089917 0.329025
0.048777 0.170479 -0.997524
-0.247566 -0.052431 0.457384
0.137125 -0.028838 -0.267496
0.044633 0.142880 -0.308193
-0.129165 -0.078658 0.430876
0.215893 -0.091676 -0.184989
0.011915 0.154526 -0.727735
-0.127448 0.104585 0.179335
0.339464 -0.108785 -0.228638
0.000079 0.003165 0.147416
-0.099924 0.132593 0.101269
-0.185634 -0.000585 0.347243
0.193006 0.034159 -0.347764
-0.007467 0.083599 -0.178786
0.308141 -0.088123 -0.234045
0.172854 -0.085099 -0.178457
0.136116 -0.041453 -0.242434
0.320146 -0.082927 -0.265902
-0.177343 -0.037410 0.381832
0.049345 0.115374 -0.220011
-0.024391 0.051538 0.009647
0.333586 -0.173487 -0.032125
0.073016 0.079856 0.228317
-0.045382 0.056398 0.010709
-0.070242 0.112456 0.027346
0.337414 -0.153964 -0.134473
-0.040120 0.151610 -0.015005
-0.019383 0.134751 -0.177915
0.005807 0.141397 -0.921397
-0.031071 0.067567 -0.063345
-0.035549 -0.053561 0.335004
-0.024582 0.147243 -0.089030
-0.091971 0.059646 0.140473
0.004777 0.116176 -0.562664
-0.050120 0.059633 0.019067
-0.163331 -0.132170 0.515538
-0.087024 0.088172 0.090310
0.053629 0.091729 0.079272
0.088035 0.080157 -0.440331
0.002119 0.143486 -0.332797
-0.038337 0.156383 -0.009444
-0.333878 -0.182623 0.641023
0.264115 -0.123887 -0.147513
0.270227 -0.018727 -0.307851
-0.260630 -0.025276 0.449180
0.128659 0.117355 -0.439555
-0.237067 -0.048466 0.443501
-0.011895 0.044156 0.018865
0.045595 0.143876 -0.631189
-0.233241 -0.092727 0.475436
0.010608 0.149634 -0.472623
0.001325 0.013545 0.118387
0.223693 0.020261 -0.328364
-0.011278 0.123817 -0.271220
-0.007533 0.083552 -0.183261
0.171806 -0.094980 -0.151265
0.035225 0.228060 -0.901479
0.045136 0.044512 0.041695
-0.080611 -0.053385 0.366694
-0.336858 -0.284094 0.715331
-0.030647 0.057399 -0.010920
-0.273236 -0.068223 0.498581
-0.318349 -0.213312 0.633047
0.212183 -0.045834 -0.256496
-0.324495 -0.162121 0.624873
-0.048867 -0.006593 0.229947
0.217972 -0.081737 -0.214219
-0.252576 -0.217527 0.640167
0.311606 -0.071945 -0.275614
0.277070 -0.019183 -0.315175
0.117494 -0.044753 -0.221634
-0.014928 0.131826 -0.223536
0.100127 0.066202 0.390708
-0.078514 0.035424 0.162746
0.140300 0.071390 -0.394081
0.300444 -0.077794 -0.245958
0.163011 0.033837 -0.349897
-0.043314 -0.005331 0.220507
-0.031091 0.028265 0.108926
-0.046721 -0.017855 0.259626
0.020483 0.122385 0.014540
-0.056285 -0.012174 0.257886
-0.241360 -0.137104 0.516383
-0.197950 -0.087066 0.451587
0.019844 0.115672 -0.627128
-0.021878 -0.010997 0.213163
-0.034335 -0.056877 0.339459
-0.250203 -0.106934 0.500980
-0.107319 0.029521 0.223393
0.038301 0.131936 -0.946003
-0.150404 -0.016569 0.337456
-0.100261 -0.021224 0.310087
0.272166 -0.087253 -0.216341
0.006922 0.114380 -0.470192
0.047818 0.105807 0.122344
0.034063 0.133541 -0.959314
0.079701 0.102915 -0.468444
0.176217 -0.031367 -0.274721
-0.338831 -0.286759 0.710196
0.031591 0.114464 -0.611081
-0.057326 0.049719 0.081120
-0.021123 0.053054 -0.004350
0.058966 0.096088 -0.065447
0.335555 -0.102437 -0.241165
-0.053201 -0.017346 0.263313
-0.283538 -0.140000 0.550552
-0.038401 0.148593 -0.028387
-0.281144 -0.100781 0.532682
-0.071126 0.010163 0.211223
-0.213243 -0.183042 0.585882
-0.046247 0.056445 0.012350
-0.063935 -0.034792 0.313751
-0.251010 -0.190789 0.574974
0.031618 0.222025 -0.907488
0.100531 0.076373 0.390262
0.261091 -0.039498 -0.277035
0.305269 -0.162117 -0.099597
0.055450 0.101268 0.120276
0.004564 0.162503 -0.933331
-0.059463 0.045394 0.077023
-0.085144 0.023628 0.201183
0.366459 -0.150777 -0.138522
0.129241 0.013151 -0.328273
-0.009561 0.149712 -0.175705
-0.209723 -0.136147 0.509351
0.010712 0.019462 0.098770
0.092272 -0.013029 -0.282874
0.307635 -0.145146 -0.138095
0.092430 0.082111 0.369890
0.047142 0.142956 -0.704340
-0.340531 -0.277639 0.702265
-0.313621 -0.219368 0.635135
0.019133 0.123041 0.001848
0.018689 0.093799 -0.275127
0.035183 0.164464 -0.864889
0.060831 0.076627 0.007611
-0.171407 -0.109394 0.477107
-0.076064 -0.088246 0.437309
0.021581 0.151656 -0.558915
-0.000577 0.077535 -0.147361
0.220639 -0.048368 -0.252171
-0.213048 -0.001198 0.382062
0.048450 0.125551 -0.656062
-0.165770 -0.151343 0.551808
0.218246 -0.067686 -0.235426
-0.140688 0.075621 0.226812
0.285140 -0.121478 -0.164192
-0.027541 0.150033 -0.061068
-0.017206 0.109492 -0.224780
0.052243 0.078265 0.068857
-0.341276 -0.257384 0.678973
-0.081960 0.111866 0.061331
0.124028 0.040004 -0.366294
0.126359 -0.065857 -0.165795
-0.163334 0.064256 0.268945
0.088123 0.084496 0.346685
0.016309 0.097026 -0.524426
-0.056594 0.071392 0.028374
-0.002949 -0.038426 0.252656
0.063670 0.061774 -0.425311
0.041197 0.148433 -0.942972
-0.032455 0.053419 0.006533
-0.170588 0.064714 0.275880
-0.088759 0.128281 0.079006
0.247106 -0.126840 -0.140909
-0.239936 -0.140600 0.519020
0.044204 0.141494 -0.986607
0.203132 -0.058758 -0.244149
-0.265646 -0.141918 0.536015
0.049648 0.134531 -0.311852
0.055633 0.074089 0.099074
-0.207033 -0.136330 0.509958
-0.122268 -0.034585 0.349060
0.029724 0.164684 -0.824171
0.046417 0.144529 -0.693735
-0.107862 -0.000720 0.277835
0.063680 0.108089 -0.055325
0.047149 0.139438 -0.738291
-0.262898 -0.069335 0.486784
-0.036679 0.087419 -0.077583
-0.225083 -0.147702 0.523375
0.250668 -0.143457 -0.117246
0.057397 0.041604 0.064812
0.038495 0.097248 -0.278574
-0.174185 0.041980 0.295363
-0.269106 -0.037251 0.463399
-0.015842 0.023314 0.108070
0.033204 0.117202 0.026315
0.047455 0.068234 0.075610
-0.075596 -0.070273 0.397194
-0.208595 0.010448 0.365093
0.011084 0.073652 -0.133899
-0.037466 -0.062290 0.356898
0.011511 0.154399 -0.729416
0.021955 0.161730 -0.149766
0.239661 -0.143113 -0.064588
-0.324541 -0.268838 0.687306
-0.082032 -0.043529 0.346954
-0.285876 -0.114461 0.548317
0.060226 0.059108 -0.422935
-0.027140 0.051902 0.002085
-0.109976 0.070170 0.167531
-0.022198 0.154779 -0.048596
0.115762 -0.043042 -0.219125
-0.001748 0.116765 -0.394046
-0.149393 0.076053 0.244955
0.043521 0.139403 -0.891925
-0.017364 0.004848 0.162425
0.139103 -0.079811 -0.142585
-0.191900 0.026053 0.327009
0.033890 0.165367 -0.892243
0.056980 0.085081 0.108231
0.005729 0.153699 -0.207961
-0.331251 -0.268227 0.687972
0.297604 -0.069516 -0.263504
-0.082138 0.028087 0.178746
0.146080 -0.058723 -0.211432
-0.011123 0.105907 -0.273023
0.270775 -0.144686 -0.118306
0.051725 0.102854 0.114913
0.170592 -0.066216 -0.220919
-0.340845 -0.221237 0.656202
0.220292 -0.134336 -0.069445
-0.110975 0.014628 0.255752
-0.339672 -0.253324 0.672688
0.105414 0.057049 0.427430
0.043614 0.190281 -0.987190
-0.269144 -0.057975 0.483636
0.086586 0.039939 -0.376885
-0.206706 0.010838 0.363368
0.142670 0.050291 -0.374983
0.006281 0.123583 -0.507529
-0.011889 -0.037674 0.262455
-0.077996 0.031540 0.160718
0.153510 -0.040450 -0.258770
-0.280700 -0.173711 0.573913
0.049402 0.115752 -0.231388
-0.013525 0.086930 -0.204873
0.069048 -0.021220 -0.244662
0.044584 0.148778 -0.615416
-0.226312 0.006362 0.397891
0.032472 0.208781 -0.941378
-0.064075 -0.045729 0.337425
0.156696 0.106871 -0.407932
0.035395 0.158963 -0.713849
-0.259659 -0.073407 0.486698
0.025661 0.047637 -0.461124
-0.265199 -0.029633 0.452137
-0.240785 -0.103027 0.490151
0.006940 0.123036 -0.518412
0.044291 0.003127 -0.333296
-0.100686 -0.045302 0.361377
0.040849 0.119166 -0.453135
0.026854 0.130962 -0.897843
0.045341 0.111934 0.191413
-0.019223 -0.048358 0.296682
0.020523 0.155940 -0.687540
0.016057 0.161825 -0.817255
0.040585 0.028914 -0.398640
-0.326228 -0.210481 0.638038
0.089431 0.023409 -0.353817
0.042097 0.127505 -0.457259
-0.049551 0.133951 -0.019352
0.259364 -0.014791 -0.306118
0.094939 -0.033545 -0.221721
-0.217095 -0.044301 0.422648
0.277838 -0.045239 -0.280382
-0.102714 0.052584 0.171380
0.004724 0.137658 -0.680744
0.041352 0.221042 -0.925260
0.041621 0.119514 -0.645392
0.042679 0.044390 -0.423375
0.231237 -0.137585 -0.121527
0.031418 -0.003380 0.134942
-0.042533 0.126914 -0.051428
0.248440 -0.025739 -0.292316
0.019723 0.120870 0.110456
-0.331626 -0.279750 0.702178
0.189518 -0.012640 -0.295164
0.008992 0.163408 -0.899864
0.152833 -0.080694 -0.162549
0.017690 0.132095 -0.883203
0.051656 0.088516 0.039448
0.216468 -0.122785 -0.134237
-0.152561 -0.094363 0.456602
0.018606 0.125772 -0.039648
0.034077 0.016981 -0.385940
-0.282753 -0.109525 0.541059
0.012680 0.125046 -0.009903
-0.064752 0.084827 0.035422
0.176792 -0.111575 -0.092875
-0.162238 -0.034525 0.367685
0.237461 0.023042 -0.336100
0.021305 -0.011564 0.157765
0.181294 0.011509 -0.324319
-0.155035 0.098281 0.249861
0.095124 0.082438 0.385536
-0.182863 -0.034210 0.383710
-0.026606 0.018735 0.131553
0.048084 0.130984 -0.348928
0.246455 0.028051 -0.340173
0.224053 0.003704 -0.317276
0.232932 0.044947 -0.348398
0.313155 -0.109974 -0.203501
-0.132698 0.104483 0.196270
-0.242247 -0.170303 0.550890
-0.235040 -0.107144 0.485745
-0.137141 0.104355 0.204676
0.355886 -0.147913 -0.145044
-0.030946 0.161004 -0.018051
0.321928 -0.148570 -0.141568
-0.017748 0.042117 0.030023
0.116697 0.129662 -0.458593
-0.352764 -0.239329 0.676361
0.122080 0.061016 -0.388913
-0.186988 -0.027723 0.377200
0.267758 -0.001789 -0.326462
-0.072098 0.000877 0.237041
-0.125156 -0.011555 0.307512
-0.122628 -0.033243 0.344717
0.272298 -0.074629 -0.232752
0.193719 -0.086258 -0.186011
0.282811 -0.164032 -0.093315
0.040198 0.135248 -0.479115
0.188028 -0.112163 -0.131857
-0.059759 0.088532 0.015026
-0.093374 0.031540 0.198821
0.037324 0.127812 -0.826890
-0.161681 0.033408 0.285026
0.220054 -0.135644 -0.109304
0.041683 0.069496 -0.044067
-0.111202 -0.094070 0.448822
-0.267631 -0.159855 0.551383
0.045427 -0.014268 -0.260231
-0.226680 -0.152226 0.526476
0.108583 0.002050 -0.316021
-0.104865 0.080352 0.143647
-0.130936 -0.096389 0.453940
0.275006 -0.028901 -0.299325
-0.055274 0.070386 0.026694
-0.020329 0.040687 0.051301
0.077267 0.109324 -0.473925
0.007628 0.146012 -0.990187
-0.126429 -0.087457 0.438955
0.194155 -0.006727 -0.301589
0.148391 -0.076681 -0.169831
-0.215936 -0.105354 0.475577
-0.038566 0.099642 -0.077455
0.238951 -0.098871 -0.182299
-0.226097 -0.105936 0.481688
-0.319190 -0.241715 0.656863
0.058326 0.104360 0.229508
0.168535 0.053868 -0.367504
-0.008855 -0.050381 0.290861
0.022456 0.062391 -0.054585
0.067419 0.081334 0.199121
0.153248 -0.014280 -0.292159
0.022293 0.130337 -0.072906
0.033081 0.145359 -0.480860
0.042045 0.132669 -0.902678
0.023978 0.127825 -0.068858
0.043642 0.147127 -0.735975
0.354389 -0.175186 -0.091872
0.157368 -0.032426 -0.267490
-0.154561 -0.123524 0.500347
0.019679 0.123073 -0.732570
-0.276361 -0.185664 0.580052
0.112209 -0.042001 -0.217431
0.032810 0.034841 0.054074
-0.267301 -0.163978 0.556089
0.011109 0.161860 -0.864637
-0.113582 -0.096155 0.455763
0.046670 0.136072 -0.219234
-0.248772 -0.127658 0.513979
0.234333 -0.033421 -0.274277
0.080659 0.055318 0.334074
-0.259891 -0.212130 0.650955
0.147984 -0.082518 -0.148850
-0.218379 -0.045619 0.421591
-0.116296 0.141666 0.130010
-0.256373 -0.217601 0.626454
-0.270984 -0.104967 0.523039
0.088684 0.027155 -0.356008
-0.033953 -0.028580 0.268750
-0.053624 -0.060947 0.369723
0.264625 -0.074227 -0.227950
-0.056690 -0.004452 0.234436
-0.210803 -0.122032 0.490560
0.358967 -0.138317 -0.164631
-0.224881 -0.175540 0.555145
0.023613 0.034842 -0.447288
0.321545 -0.137700 -0.156527
0.071448 0.077875 0.215018
0.266010 -0.105776 -0.179597
0.101957 0.095415 -0.438215
-0.024576 0.060504 -0.035933
0.166428 -0.086619 -0.164283
-0.145252 0.052275 0.255545
0.201445 -0.123680 -0.112665
0.087674 0.084219 0.338164
0.324140 -0.090457 -0.251258
0.045627 0.134507 -0.843393
0.260118 -0.098552 -0.193584
-0.111940 0.097009 0.140539
0.031171 0.116858 0.085161
-0.165326 -0.088173 0.444428
0.075155 0.054757 0.328574
-0.080330 0.138436 0.061556
-0.169496 0.079848 0.270400
0.064170 0.025102 -0.369644
-0.023077 0.065867 -0.058912
0.104627 0.063329 -0.405799
0.128412 -0.032792 -0.254998
0.326960 -0.170985 -0.030415
-0.204984 -0.012184 0.381472
-0.073913 0.027339 0.174524
0.066052 -0.020360 -0.228897
-0.269023 -0.103836 0.518567
0.236555 0.036967 -0.345765
0.040607 0.009964 0.105379
0.082085 -0.000629 -0.309345
-0.094423 -0.076605 0.418633
-0.108061 0.116245 0.123848
0.120160 -0.062836 -0.170172
-0.278226 -0.090884 0.523745
-0.042128 0.145629 -0.018093
-0.068449 0.060951 0.087985
-0.089629 0.114792 0.079026
-0.348771 -0.294115 0.737392
0.020885 0.036396 0.051382
-0.034251 0.142884 -0.053778
-0.021069 -0.048730 0.305037
0.028614 0.205949 -0.943117
-0.018997 -0.061316 0.321985
-0.063848 -0.066155 0.389186
0.260316 -0.157081 -0.075608
-0.081213 -0.001448 0.251784
0.032915 0.125509 -0.794266
-0.223186 -0.031156 0.416565
-0.228895 -0.171967 0.551546
0.048302 0.101246 -0.166802
0.161315 -0.031149 -0.269076
-0.181966 -0.026804 0.370330
0.070671 0.053613 0.294903
0.127726 0.119881 -0.441360
0.172339 -0.079205 -0.184953
0.213604 0.004723 -0.315075
0.007243 0.145467 -0.874428
-0.003561 0.111226 -0.362617
-0.048784 -0.058189 0.353257
0.287432 -0.041600 -0.297611
-0.289239 -0.074393 0.527474
0.244827 -0.108203 -0.167752
-0.239388 -0.077419 0.468241
-0.335452 -0.231642 0.657153
-0.236774 -0.067625 0.458356
0.195044 -0.114558 -0.131743
0.153453 -0.069021 -0.194413
0.329479 -0.168001 -0.103687
-0.086830 0.080291 0.096585
-0.280989 -0.061445 0.504412
-0.104882 0.015882 0.242399
-0.215036 -0.120868 0.490284
-0.076098 0.123399 0.041148
-0.016744 -0.049576 0.300378
0.037344 0.113245 0.049227
-0.166908 0.059965 0.275558
0.041557 0.112235 -0.335267
-0.005992 0.175298 -0.978475
-0.245321 -0.203376 0.595381
-0.165879 -0.007657 0.335167
-0.209994 0.042352 0.343902
0.053546 0.071691 0.099775
0.036439 0.145364 -0.376643
0.017750 0.133150 -0.969411
0.009042 0.150703 -0.729425
0.191960 -0.078122 -0.207322
0.278334 -0.152186 -0.106090
-0.098360 0.119913 0.102456
-0.140083 0.096655 0.217040
0.052128 0.093721 -0.100284
-0.134938 -0.114989 0.486840
-0.051307 0.143048 -0.000429
0.287664 -0.131594 -0.149642
0.006516 0.142405 -0.395753
-0.077216 0.149434 0.059255
0.082588 0.023948 -0.354846
-0.019641 0.066417 -0.071401
0.135534 -0.052235 -0.221297
0.155357 -0.097728 -0.112390
0.088802 0.083705 0.346781
0.164874 -0.069263 -0.209369
0.005161 0.147298 -0.727777
-0.138108 0.113588 0.201976
-0.256942 -0.070784 0.481483
-0.166296 -0.116538 0.485711
-0.274275 -0.061330 0.495754
-0.155326 -0.034349 0.366760
-0.032825 0.040479 0.064578
0.104436 0.077825 -0.419840
0.322026 -0.169970 -0.090717
0.045097 0.124165 -0.693617
0.066793 -0.017787 -0.249330
-0.209986 -0.002390 0.380670
-0.160380 -0.005338 0.327690
-0.340159 -0.254345 0.673839
0.023088 0.120226 -0.717949
-0.132032 0.078238 0.204812
-0.092999 0.054723 0.154950
0.024553 0.049902 -0.468506
0.031907 0.160530 -0.683498
