0.007715 0.101199 -0.292723
0.021290 0.075501 -0.169312
-0.231725 0.182822 -0.063253
0.201507 -0.397544 0.511721
-0.013853 0.183139 -0.900683
0.197634 -0.235101 0.464700
-0.000568 0.088697 -0.033853
0.026740 -0.165084 0.293265
0.010654 0.012940 0.005146
0.012851 0.096856 -0.250549
-0.148488 0.120325 -0.286144
-0.021917 0.156141 -0.617172
0.015589 -0.099798 0.225552
0.079729 -0.122149 0.281577
0.151143 -0.348541 0.480417
-0.061721 0.020534 0.078481
-0.321949 0.200024 -0.092715
-0.012143 0.147554 -0.767490
-0.042369 0.084047 0.064312
-0.033189 0.156907 -0.604323
-0.012668 0.135433 -0.462082
-0.011324 -0.110170 0.237826
-0.095879 0.184443 -0.262255
-0.037652 0.084160 -0.005900
-0.094135 0.162518 -0.317321
0.213044 -0.267096 0.469124
0.010337 -0.003703 0.061468
0.080955 0.017268 0.159718
-0.019078 0.003491 0.050652
-0.038660 0.159670 -0.904268
0.082958 -0.102811 0.272903
0.096635 -0.039717 0.254774
0.221261 -0.402239 0.504659
-0.028053 0.125162 -0.580373
-0.059870 0.160360 -0.382765
-0.012307 0.104295 -0.420603
0.101955 -0.010125 0.243683
0.094169 -0.020260 0.236947
0.006604 0.118097 -0.284539
-0.050386 0.070089 -0.002579
-0.041060 0.169162 -0.811409
-0.037367 0.085866 -0.140714
-0.137493 0.141609 -0.286885
-0.019841 0.095473 -0.031483
-0.036605 0.077461 -0.113885
0.043171 0.049861 -0.031290
-0.261237 0.140112 -0.215391
-0.028126 0.158464 -0.615063
0.085800 -0.084449 0.261363
0.056842 -0.177058 0.312327
-0.046307 0.094357 0.146264
0.057676 -0.239200 0.371200
0.085213 0.044701 0.087622
-0.042059 0.143854 -0.552095
0.230771 -0.286104 0.492607
-0.113977 0.190080 -0.204381
0.200990 -0.240668 0.470607
-0.179281 0.153299 -0.213404
-0.025223 0.135721 -0.313579
0.121856 -0.150481 0.345261
0.082180 0.043527 0.082423
-0.000514 0.089231 0.046224
0.160843 -0.329903 0.452846
-0.000449 0.132449 -0.261627
0.203448 -0.399455 0.509280
0.065438 -0.008532 0.135746
-0.314438 0.186434 -0.134763
-0.039782 0.174721 -0.811362
-0.040827 0.165277 -0.859112
-0.030355 0.126002 -0.580963
0.134431 -0.236487 0.387666
-0.015438 0.171401 -0.847493
-0.007853 0.093000 0.057394
0.070413 -0.037552 0.189941
0.053861 -0.250273 0.382187
0.086952 0.064535 0.048148
-0.057070 -0.047173 0.169614
-0.009171 0.110080 -0.449904
-0.027085 0.124274 -0.231308
-0.046624 -0.035254 0.140548
0.250107 -0.340843 0.495610
0.201817 -0.262110 0.452950
0.092077 -0.292796 0.418533
-0.185008 0.167732 -0.135596
-0.035897 0.139951 -0.699395
-0.072827 0.048593 0.200291
0.143142 -0.125427 0.379176
-0.085663 0.079662 -0.383210
0.135819 -0.205273 0.373910
-0.043302 0.021434 0.037765
-0.208883 0.109701 -0.272359
-0.007393 -0.103870 0.226635
-0.220577 0.146209 -0.214406
-0.080923 0.146469 -0.385382
-0.022966 0.175760 -0.867771
-0.317041 0.203828 -0.079004
0.219275 -0.311173 0.467814
-0.009406 0.132241 -0.646154
-0.075662 0.084949 -0.396266
0.240002 -0.294630 0.502300
0.020132 -0.129763 0.257431
0.192587 -0.366951 0.482995
-0.036974 0.146527 -0.775650
-0.238603 0.185485 -0.062171
-0.167088 0.158871 -0.192530
0.064972 -0.103372 0.252468
0.031428 -0.000092 0.046638
-0.141270 0.150749 -0.258656
-0.231742 0.176688 -0.097960
0.062880 0.090731 -0.016714
0.025265 0.075000 -0.147209
0.080298 -0.029415 0.200665
-0.040986 0.163136 -0.696278
0.032921 -0.034347 0.129823
-0.037452 0.109059 -0.154229
0.132599 -0.315482 0.439458
0.103949 -0.013834 0.247896
-0.143292 0.188408 -0.123990
-0.019640 -0.019093 0.098386
-0.040466 0.088907 -0.121848
-0.267706 0.198722 -0.005454
-0.272493 0.125924 -0.232318
0.096634 -0.030411 0.247561
-0.213278 0.187151 -0.030574
0.078186 0.000045 0.165865
-0.086175 0.043129 0.260117
0.030574 -0.146032 0.273756
-0.043753 0.092742 -0.162732
-0.270352 0.190621 -0.108676
-0.109902 0.125049 -0.342054
0.142703 -0.306062 0.430724
0.198334 -0.234946 0.467633
0.266243 -0.428653 0.521207
-0.001785 0.127424 -0.332865
-0.055024 0.088456 0.150655
-0.183910 0.165043 -0.149319
-0.035457 0.086758 -0.244284
0.045901 -0.207228 0.337632
0.033222 0.079305 -0.118075
0.073979 -0.070712 0.232836
-0.023867 -0.003954 0.072540
0.037233 0.119040 -0.070687
0.054346 -0.152871 0.289963
0.090504 0.044286 0.089915
-0.013176 0.063914 -0.175110
0.010136 0.129496 -0.167303
-0.011770 0.184835 -0.986270
-0.124614 0.137053 -0.303537
0.123186 -0.119661 0.340682
0.031528 -0.160931 0.289053
-0.039855 0.156954 -0.427642
0.025655 -0.002737 0.049441
-0.040435 0.160967 -0.675336
0.082786 -0.021138 0.204322
0.182973 -0.249824 0.430189
0.149983 -0.171420 0.389374
-0.116311 0.141435 -0.322637
-0.188780 0.119847 -0.269619
0.048859 -0.120601 0.259627
0.110717 -0.314112 0.436740
-0.013790 0.165300 -0.823671
-0.010824 0.131805 -0.679715
-0.062601 0.079775 -0.413730
-0.176069 0.163166 -0.163951
0.095066 -0.081893 0.276425
-0.037917 0.102908 -0.114136
-0.133762 0.175794 -0.194432
-0.250333 0.185726 -0.084465
0.056384 -0.020591 0.134373
-0.067557 0.148149 -0.405849
0.295349 -0.406338 0.520652
0.083715 0.052402 0.054633
-0.009257 0.095981 -0.053050
0.265019 -0.337319 0.512465
0.082296 -0.091072 0.263578
-0.028139 0.137163 -0.687324
0.015609 0.119765 -0.157531
0.012214 -0.157861 0.280267
-0.271837 0.144191 -0.206947
-0.100842 0.066635 0.254001
0.040770 -0.040499 0.144000
0.001844 0.038506 -0.073174
-0.267952 0.194906 -0.037611
0.095533 -0.277277 0.405690
-0.011624 -0.132278 0.257288
0.017355 -0.018594 0.094655
0.257785 -0.341438 0.503158
-0.014101 0.153370 -0.664603
0.098688 0.044568 0.129949
-0.006332 0.162770 -0.978636
-0.029832 0.166879 -0.731228
0.258549 -0.357847 0.502570
0.061338 -0.150059 0.292065
0.068464 -0.048356 0.198730
0.012440 -0.045631 0.144081
-0.013168 0.166686 -0.833594
-0.076210 0.129552 -0.414160
-0.163124 0.154157 -0.214332
-0.010279 0.186519 -0.945169
0.233478 -0.303714 0.487202
0.068012 -0.020856 0.161358
-0.281355 0.199406 -0.056712
-0.170976 0.173614 -0.119988
0.122356 -0.115667 0.340702
-0.018672 -0.135117 0.263773
0.027406 -0.034708 0.129671
-0.234110 0.183475 -0.065085
0.069468 -0.243567 0.376895
0.159474 -0.279886 0.419694
0.018522 0.033878 -0.059781
-0.047854 0.037175 0.141416
-0.087313 0.076077 0.230147
0.302157 -0.430801 0.527005
0.028273 0.098820 -0.140895
0.035254 0.009581 0.031443
-0.036448 0.129695 -0.574083
0.093646 0.024782 0.185375
-0.115938 0.157901 -0.287521
-0.150810 0.117969 -0.292124
0.004634 0.135067 -0.168208
-0.025735 0.107318 -0.419071
0.192586 -0.277942 0.441764
0.195596 -0.236886 0.453770
0.085355 0.007973 0.185350
-0.042777 0.008068 0.067163
0.082875 0.073902 0.022016
-0.133511 0.161642 -0.237884
-0.132867 0.184671 -0.166534
-0.042959 0.127558 -0.521257
-0.090427 0.059056 0.234923
-0.041010 0.142944 -0.504471
-0.145380 0.189802 -0.118947
0.065051 0.045250 0.031872
-0.007398 0.152542 -0.881134
-0.178403 0.181692 -0.066470
0.036119 -0.192901 0.320405
-0.109472 0.140019 -0.341123
0.091512 0.025699 0.166059
-0.004494 0.097354 -0.383644
-0.279806 0.188225 -0.132301
0.093702 -0.297004 0.421674
-0.247680 0.165137 -0.173300
-0.031812 0.118472 -0.460028
0.019487 0.110078 -0.184408
-0.029126 0.077917 -0.213943
0.083027 -0.283163 0.414442
-0.327188 0.207709 -0.040654
0.137499 -0.180379 0.371096
0.026480 -0.007823 0.063814
-0.017417 0.150209 -0.508941
-0.012508 0.099643 -0.391553
-0.235664 0.102419 -0.267438
-0.025887 0.097683 -0.344656
-0.226605 0.175743 -0.118601
0.061342 -0.139142 0.281998
-0.003658 -0.127642 0.253072
0.034322 0.032393 -0.019819
-0.046766 0.137106 -0.571366
-0.010482 0.146544 -0.665571
0.162954 -0.191429 0.406896
0.003209 0.130992 -0.206936
0.103730 -0.226364 0.371315
0.064347 0.007379 0.102172
-0.317853 0.201299 -0.076782
0.037546 -0.145486 0.277245
0.014701 -0.100456 0.225879
-0.231114 0.183248 -0.054131
0.282854 -0.356099 0.516360
0.027490 0.005502 0.015488
-0.261837 0.194015 -0.029979
-0.280262 0.201511 -0.022208
-0.150912 0.177084 -0.146305
0.118831 -0.268068 0.398310
0.234834 -0.319145 0.482625
0.036908 -0.040034 0.142394
0.025644 -0.179114 0.302468
0.079729 0.065504 0.028706
0.174060 -0.280733 0.428075
-0.157923 0.119054 -0.285407
0.046066 -0.241341 0.369143
-0.035447 0.152685 -0.560491
-0.031607 0.157665 -0.891532
-0.187134 0.177748 -0.080360
0.074628 0.012940 0.122152
0.079330 -0.043418 0.215081
0.094471 -0.226499 0.367106
-0.011064 0.133154 -0.484065
-0.003656 -0.139775 0.263575
0.050413 -0.058974 0.178103
0.244584 -0.422711 0.529779
0.222001 -0.413351 0.519161
-0.100184 0.075642 0.261858
0.144062 -0.213863 0.383968
-0.069176 0.084055 -0.410997
-0.042134 0.143656 -0.595506
0.067104 0.027178 0.079280
-0.260339 0.194149 -0.063717
-0.113545 0.043692 0.312284
-0.294474 0.173931 -0.158076
-0.024537 0.099854 -0.369091
-0.034470 -0.053127 0.164006
-0.040864 0.166011 -0.855330
0.099118 -0.149374 0.316624
0.190574 -0.205065 0.457782
0.218112 -0.408467 0.513042
0.088584 -0.279497 0.409049
0.183196 -0.198206 0.442882
0.278689 -0.345431 0.516611
0.036045 -0.233875 0.360093
-0.006310 -0.041128 0.137046
-0.030220 0.152218 -0.483705
0.154184 -0.283311 0.418786
-0.035412 0.158445 -0.926557
-0.041404 0.133207 -0.526690
-0.005824 0.172184 -0.984239
-0.038271 -0.026058 0.120343
0.013441 0.064700 -0.155673
-0.057433 -0.023598 0.131536
0.206364 -0.284485 0.454389
-0.014369 0.154459 -0.844357
-0.019553 0.177791 -0.878888
0.119251 -0.192117 0.354507
-0.000805 0.129177 -0.274604
-0.125560 0.194160 -0.161986
0.021156 0.122390 -0.120872
-0.002478 0.132421 -0.308349
0.046891 0.005467 0.066814
0.016716 -0.177150 0.299868
-0.315539 0.192236 -0.115405
-0.005747 0.069619 -0.242226
-0.287664 0.193349 -0.119447
-0.020056 0.098165 -0.069322
-0.111500 0.046452 0.311404
0.024225 -0.152034 0.278721
-0.040849 0.126940 -0.435641
-0.039476 0.129196 -0.563506
-0.033968 0.113973 -0.230194
-0.036517 -0.014555 0.102598
0.022680 -0.149990 0.276399
-0.037156 0.086053 -0.002037
-0.069429 0.042625 0.207027
0.025575 -0.074126 0.193927
0.089926 -0.065215 0.253137
-0.161301 0.071637 -0.329860
-0.108905 0.169261 -0.265957
-0.004583 0.107605 -0.413253
-0.007742 -0.094358 0.218284
-0.091345 0.157515 -0.330516
0.027026 -0.071111 0.189805
-0.067773 0.052535 0.150453
-0.059597 0.172085 -0.328239
-0.053503 0.073782 0.077157
-0.182144 0.166849 -0.139951
0.235933 -0.294110 0.494690
-0.083402 0.065860 0.209803
-0.064394 0.044573 0.174894
0.073061 0.002280 0.150796
0.109881 -0.079588 0.300718
-0.119728 0.061150 0.296261
-0.023175 -0.000063 0.060647
-0.014350 0.150564 -0.808735
0.076248 -0.127390 0.283289
0.147990 -0.119560 0.386315
-0.193814 0.083813 -0.305648
0.004567 0.050625 -0.136854
0.121264 -0.105651 0.332496
0.244052 -0.304234 0.508032
-0.088748 0.042376 0.266065
-0.037744 0.074384 -0.090928
-0.113112 0.168830 -0.269696
0.078933 -0.092712 0.260579
0.268698 -0.420539 0.517261
-0.011694 0.154036 -0.724113
0.145985 -0.345679 0.470737
0.023833 -0.101674 0.230259
0.157134 -0.325681 0.449428
0.028877 -0.133598 0.263061
0.128096 -0.128897 0.352914
0.041212 -0.022400 0.108748
-0.038420 0.106951 -0.107217
0.053192 -0.224104 0.357838
-0.078935 0.159143 -0.347144
-0.022017 -0.132793 0.259024
-0.024774 0.127815 -0.249170
0.139559 -0.300393 0.424920
0.085677 -0.006688 0.206666
-0.016339 0.113093 -0.475749
0.214783 -0.296984 0.462990
0.040931 0.013741 0.047755
-0.015134 0.187569 -0.937253
-0.066122 0.145198 -0.423447
-0.063592 0.086146 -0.425331
0.283892 -0.414616 0.518160
0.218045 -0.391493 0.498392
0.086224 -0.172698 0.322867
0.150612 -0.158524 0.390547
-0.303127 0.203490 -0.047031
-0.023904 0.092385 0.048376
0.287029 -0.452894 0.533093
0.189457 -0.270718 0.437678
-0.170285 0.127599 -0.265539
-0.024864 -0.008142 0.078987
-0.012467 0.006673 0.036963
-0.050798 0.036777 0.027535
0.026914 -0.004010 0.053132
0.139687 -0.118002 0.371617
0.084312 -0.233931 0.368821
-0.004785 0.092360 0.002871
-0.098007 0.171285 -0.283215
-0.015741 0.157350 -0.646190
0.228782 -0.412793 0.521653
-0.030501 0.157238 -0.606733
0.284731 -0.408172 0.516681
0.018341 0.012875 0.004041
0.191773 -0.385821 0.498121
-0.018659 0.170114 -0.818373
-0.187020 0.092549 -0.296294
0.083878 0.028684 0.122281
0.046829 -0.206726 0.336317
-0.093261 0.076588 0.244604
-0.039826 0.144219 -0.697738
-0.043810 0.022364 0.037873
0.046364 -0.226909 0.358681
0.042849 -0.061705 0.184421
0.011758 0.122502 -0.174945
-0.036773 0.084762 -0.011163
-0.082264 0.041054 0.246985
0.092426 -0.095954 0.280090
-0.307675 0.204773 -0.050775
0.153192 -0.142393 0.399169
0.007916 0.043834 -0.125761
-0.032177 0.035194 -0.010249
0.229999 -0.280366 0.494737
0.086786 0.016602 0.173852
-0.019489 0.122622 -0.563165
0.087902 0.034927 0.112915
-0.181236 0.157270 -0.192599
-0.110779 0.052122 0.288530
0.172790 -0.331502 0.455167
-0.021036 0.160608 -0.651455
-0.037791 0.126329 -0.477559
-0.258324 0.193362 -0.051600
-0.003805 0.176976 -0.952315
0.242230 -0.298040 0.504336
-0.122149 0.049420 0.330845
0.201754 -0.228990 0.473570
0.178021 -0.283235 0.431114
0.095977 -0.248910 0.384172
0.100203 -0.113192 0.301863
-0.094126 0.185570 -0.268097
-0.124723 0.175680 -0.212484
0.032554 0.105828 -0.098054
0.087166 0.038058 0.098535
0.168066 -0.294022 0.431699
-0.041330 0.076164 -0.011695
-0.073343 0.049523 0.198302
-0.276498 0.200985 -0.056852
-0.016614 -0.108220 0.234068
0.066904 -0.023997 0.162595
0.016466 0.112771 -0.202628
-0.316885 0.201969 -0.087738
-0.074736 0.077045 0.201043
0.019836 0.013802 0.001672
0.033109 -0.145640 0.275441
0.043822 -0.023814 0.119253
-0.005108 0.066079 -0.212575
-0.006299 0.155627 -0.749705
0.261540 -0.342743 0.506103
0.155492 -0.158852 0.404649
0.126346 -0.324853 0.452065
0.121682 -0.050155 0.307734
0.018233 0.041547 -0.093502
0.070328 -0.064838 0.222135
0.123412 -0.047156 0.299849
-0.011881 -0.088739 0.211655
-0.016394 0.001621 0.053700
0.249846 -0.358946 0.495070
-0.009114 0.135088 -0.667648
-0.043018 0.079958 0.011994
-0.089666 0.085696 0.230841
-0.005134 0.155725 -0.760874
-0.013680 0.012716 0.019671
0.063244 -0.073263 0.220244
0.074953 -0.040874 0.203473
-0.034225 0.090709 -0.248422
0.083027 -0.014585 0.203533
-0.083451 0.135769 -0.395246
-0.120169 0.155687 -0.283144
-0.017935 0.163819 -0.755005
0.049446 0.113283 -0.047858
-0.009226 0.131441 -0.644221
-0.266732 0.196034 -0.021847
-0.055950 0.041071 0.154341
0.014544 -0.055651 0.161671
0.024765 -0.053557 0.162561
0.067075 -0.002529 0.128385
0.064937 -0.149482 0.292466
0.175444 -0.212565 0.423394
-0.076572 0.043919 0.213616
-0.032252 0.121743 -0.220526
0.119992 -0.140243 0.339338
-0.044214 0.018584 0.044236
-0.038914 0.090988 0.105249
0.144653 -0.138671 0.385535
0.242032 -0.422919 0.528973
0.035075 -0.000964 0.056815
-0.250070 0.181916 -0.123397
0.102337 -0.095282 0.294038
0.077701 0.047346 0.055793
-0.004163 0.130414 -0.311253
-0.013081 0.179369 -0.871087
0.084009 -0.248215 0.383798
0.146814 -0.296510 0.423717
-0.010017 0.175556 -0.901138
0.095321 -0.266665 0.397833
-0.243522 0.174180 -0.135196
-0.171210 0.152236 -0.219625
-0.052741 -0.029042 0.134139
-0.042891 0.150584 -0.679928
-0.010716 0.127519 -0.628380
-0.027768 -0.037310 0.134247
0.125257 -0.099305 0.337133
-0.322805 0.210828 -0.029463
0.040699 -0.025222 0.111800
-0.043070 0.128525 -0.522010
0.000808 0.066814 -0.208358
0.052271 -0.243404 0.373519
-0.048625 0.059121 -0.015304
-0.032255 -0.054879 0.166730
0.065085 0.028918 0.060058
0.029667 0.075580 -0.123223
-0.063264 0.045313 0.146495
-0.103227 0.198827 -0.211200
0.029461 -0.056064 0.171275
-0.114995 0.048522 0.310408
0.108261 -0.076377 0.296021
-0.069685 0.046595 0.191662
-0.235969 0.187795 -0.026014
-0.215232 0.169402 -0.140397
-0.012442 -0.006328 0.070738
-0.036538 0.035540 -0.006723
-0.033932 0.152250 -0.882795
-0.047631 0.148639 -0.695587
0.089860 0.045836 0.084254
0.039603 -0.026231 0.114306
0.086023 0.038059 0.097369
0.047241 -0.012601 0.103384
-0.029220 0.154408 -0.958344
0.007514 0.037796 -0.078056
-0.035077 0.160409 -0.647422
0.054610 0.030430 0.033506
-0.024729 0.152203 -0.542197
0.105338 -0.286468 0.413042
0.048515 -0.030567 0.136213
-0.033495 -0.032763 0.128388
0.021835 0.078095 -0.169893
-0.028180 0.066488 -0.153610
-0.009671 0.136731 -0.463672
-0.330214 0.208672 -0.055081
-0.298747 0.188669 -0.129131
-0.285378 0.201415 -0.062002
-0.000116 0.127584 -0.297471
0.216848 -0.393971 0.500297
-0.005298 0.092918 -0.027967
-0.040809 0.090481 -0.210699
-0.046407 0.047412 0.047026
0.143228 -0.215610 0.384063
0.006123 -0.122565 0.250218
-0.304558 0.178151 -0.149742
-0.131316 0.143828 -0.293911
0.212368 -0.254433 0.484640
0.090624 -0.105183 0.284256
0.160659 -0.186072 0.407944
-0.314561 0.202830 -0.084078
-0.120834 0.180594 -0.191671
-0.297634 0.198714 -0.083378
0.000234 0.054995 -0.150640
-0.011640 0.081814 -0.285294
-0.042552 0.165569 -0.787172
-0.042567 0.143705 -0.561282
-0.007847 0.135491 -0.237575
0.063112 0.086574 -0.012735
-0.171032 0.169458 -0.134594
0.036878 0.123653 -0.078974
0.103219 -0.105180 0.303487
-0.114716 0.052667 0.300898
-0.003364 -0.108290 0.231965
-0.034123 0.165079 -0.999656
-0.017153 0.028381 -0.025044
-0.005910 0.163400 -0.838888
0.089006 0.020587 0.178524
-0.021748 0.092670 0.045629
0.072796 -0.136373 0.287991
0.186715 -0.208328 0.448109
-0.017860 0.028941 -0.029523
-0.045538 0.140595 -0.619538
-0.038923 0.154196 -0.831332
0.006813 0.087432 -0.015099
0.205027 -0.395702 0.503000
-0.069466 0.060430 0.170963
-0.002282 -0.038426 0.131320
0.260230 -0.378343 0.502754
0.133932 -0.104314 0.356782
0.003931 0.089096 -0.014277
-0.061624 -0.018530 0.126275
0.051320 0.027806 0.032293
-0.282438 0.136597 -0.214426
0.096471 -0.301191 0.423229
-0.049841 0.072063 0.044230
-0.015665 0.063449 -0.159351
-0.260635 0.167638 -0.176992
-0.273785 0.121177 -0.228935
0.230533 -0.286494 0.498718
-0.063478 0.043278 0.172033
-0.047832 0.055114 0.032652
-0.039297 0.146675 -0.754069
-0.058701 0.072087 0.121958
0.069327 -0.001076 0.132084
-0.260942 0.148382 -0.205395
0.008999 -0.156362 0.278255
-0.317453 0.198431 -0.102323
0.026188 0.117449 -0.122475
0.076653 0.007228 0.136653
0.087074 -0.089046 0.268699
0.137419 -0.304600 0.426610
0.244074 -0.301741 0.502758
0.078768 -0.001786 0.165798
-0.019293 0.148608 -0.878873
0.107703 -0.044301 0.275037
0.036605 -0.078997 0.211273
0.075853 -0.270800 0.405206
0.234411 -0.342952 0.483374
0.154941 -0.129201 0.402146
-0.080960 0.109996 -0.397151
0.081766 -0.058843 0.236270
0.098437 -0.028627 0.248929
-0.119303 0.178926 -0.228108
-0.268098 0.191763 -0.082583
-0.311997 0.203204 -0.080132
-0.035679 0.147506 -0.763163
0.038444 -0.197119 0.327423
-0.010574 0.132201 -0.484151
0.154340 -0.141490 0.400484
-0.006323 -0.045001 0.145151
0.111336 -0.172927 0.338880
0.088101 0.067835 0.036108
-0.008747 0.154901 -0.930608
0.092705 -0.142113 0.306477
-0.008954 0.140666 -0.687973
-0.236603 0.187269 -0.029804
-0.034870 0.083782 -0.177010
0.186775 -0.275486 0.436319
0.117199 -0.308154 0.431260
0.052169 -0.225158 0.358729
0.150135 -0.349612 0.477434
0.080231 -0.277605 0.410139
0.190390 -0.217499 0.454088
0.216685 -0.273540 0.478692
0.117315 -0.034855 0.281565
-0.032195 0.145392 -0.762330
0.091783 -0.147833 0.310874
0.299956 -0.404798 0.523753
-0.084686 0.177600 -0.300218
-0.118602 0.176320 -0.212036
0.272077 -0.444563 0.530781
0.105747 -0.133621 0.319366
0.218219 -0.408589 0.511381
0.227351 -0.405403 0.505952
-0.008387 0.121094 -0.492199
-0.054262 -0.061897 0.186106
0.052241 -0.043037 0.162469
-0.039343 0.098706 -0.491818
0.012215 0.075015 -0.207644
0.152964 -0.332951 0.454547
0.003966 0.044621 -0.110253
-0.030656 0.098584 -0.141569
-0.007720 0.075036 -0.265581
-0.089372 0.196708 -0.249399
0.104316 -0.137548 0.319807
0.123271 -0.317475 0.440923
0.106763 -0.086492 0.300388
0.045150 -0.045283 0.149540
-0.025052 -0.090414 0.211553
0.301691 -0.415852 0.525042
0.089451 0.044078 0.086764
0.194699 -0.339090 0.464791
-0.027135 0.123472 -0.237918
0.222972 -0.277305 0.483385
0.072495 -0.257986 0.390758
0.101579 -0.303269 0.424504
-0.039569 0.148837 -0.771922
0.180579 -0.264147 0.428267
-0.046620 0.067841 0.013668
0.077233 0.073990 0.015106
0.056833 -0.167718 0.305782
-0.029406 0.091617 0.068216
-0.016824 0.186714 -0.909743
-0.027485 0.093091 -0.039077
-0.035880 0.084709 -0.227001
0.124053 -0.207974 0.367177
0.017323 -0.016477 0.087031
0.106577 -0.021924 0.256511
0.264803 -0.437223 0.532131
0.000425 0.042615 -0.087368
-0.100162 0.118946 -0.362842
0.003089 0.124163 -0.343601
0.073739 -0.049406 0.211296
0.021475 0.048694 -0.098565
0.039893 -0.006281 0.076913
-0.042161 -0.072420 0.196406
0.240844 -0.423636 0.522480
-0.283112 0.200938 -0.014317
0.190240 -0.381720 0.494861
0.081746 -0.036517 0.214759
-0.260628 0.183626 -0.134741
-0.041905 0.141950 -0.592110
0.092835 -0.235718 0.373773
0.055270 0.026146 0.042304
0.159123 -0.195138 0.400700
0.120998 -0.204262 0.363122
0.078845 -0.275411 0.412313
-0.108536 0.174759 -0.264833
-0.027936 0.130390 -0.661297
-0.061413 0.093774 0.183590
-0.038063 0.082167 -0.180404
0.112652 -0.103705 0.319046
-0.238761 0.158372 -0.194384
0.106769 -0.163665 0.331843
0.119207 -0.123555 0.335667
0.033861 0.015024 0.019171
0.046036 0.051700 -0.024058
0.207198 -0.270819 0.461994
-0.113825 0.148796 -0.305631
-0.193312 0.076111 -0.307925
-0.051776 0.094597 -0.458033
0.009274 -0.100946 0.224096
0.150102 -0.285203 0.418124
0.016534 -0.176948 0.296498
0.202745 -0.282802 0.451403
0.039389 0.014569 0.034578
-0.064190 0.161422 -0.368924
0.112757 -0.109211 0.318127
0.003796 0.088580 0.041294
0.153278 -0.193828 0.392965
-0.079279 0.070718 0.201638
0.020679 0.130576 -0.115864
0.090283 -0.291141 0.417972
-0.069044 0.050478 0.178512
-0.070284 0.043948 0.210101
0.225878 -0.271664 0.494335
-0.253987 0.158928 -0.188569
-0.138516 0.097877 -0.323691
-0.034842 -0.053832 0.168566
-0.076726 0.056403 0.189159
-0.247730 0.185668 -0.038821
0.073058 -0.254692 0.388629
0.013241 -0.026001 0.113735
-0.304286 0.210000 -0.024662
-0.035829 0.091133 -0.196047
0.052396 0.041811 0.008276
-0.027215 0.075910 -0.206060
0.225520 -0.291380 0.479337
-0.039049 0.127300 -0.446079
0.192120 -0.368053 0.483630
-0.039856 0.103182 -0.161459
-0.025762 0.167291 -0.744994
-0.268471 0.193352 -0.086479
0.008725 -0.142151 0.268980
0.101965 -0.005571 0.242623
-0.188524 0.147126 -0.219400
0.092598 0.020113 0.197890
-0.094959 0.196766 -0.228888
0.032777 -0.013330 0.066977
-0.017795 0.169956 -0.803664
-0.008254 0.092997 -0.349188
-0.088066 0.155796 -0.340223
-0.037215 0.064465 -0.090936
0.039584 0.041667 -0.015774
-0.082892 0.144761 -0.377980
-0.010518 0.147223 -0.674615
0.264654 -0.329005 0.512747
-0.212376 0.182848 -0.049396
-0.106324 0.149002 -0.320836
-0.063996 0.083961 -0.418830
0.106009 -0.012612 0.249947
0.026361 -0.032977 0.126636
-0.186759 0.119101 -0.274418
0.205193 -0.256737 0.467305
0.005093 -0.037609 0.127895
0.002428 0.077526 -0.267259
0.076226 0.006885 0.136395
0.119077 -0.203908 0.360445
-0.281942 0.127936 -0.221972
0.138277 -0.340508 0.470267
-0.024488 0.171592 -0.806639
0.183643 -0.375340 0.489752
-0.145317 0.167224 -0.198518
0.077744 0.032376 0.087799
0.093678 0.006538 0.226970
-0.033474 0.126168 -0.574915
0.075849 0.026584 0.111753
-0.174499 0.169430 -0.130304
-0.126304 0.048663 0.332956
0.096099 -0.243654 0.378986
-0.070510 0.041832 0.212360
-0.008443 0.140269 -0.698947
0.097313 -0.130549 0.307835
-0.028826 0.149780 -0.806781
0.174069 -0.209963 0.425248
-0.041158 0.048543 0.013490
0.061523 0.053977 0.013193
0.054546 -0.238168 0.368339
-0.097915 0.052842 0.258336
0.135970 -0.183853 0.370035
-0.256932 0.189504 -0.026027
-0.053687 0.035684 0.154841
0.085368 -0.160488 0.315315
0.003115 -0.064753 0.177494
0.241124 -0.294919 0.504702
0.016727 0.007479 0.019055
-0.012149 0.137882 -0.422665
-0.016280 0.154851 -0.604646
0.083100 0.024876 0.129080
-0.029983 0.103442 -0.169377
-0.011791 0.145755 -0.618775
-0.110711 0.153107 -0.304272
-0.229443 0.172908 -0.147132
0.070282 -0.178623 0.319129
-0.053799 0.165969 -0.356114
-0.124380 0.148029 -0.293739
-0.071636 0.045825 0.204654
0.132285 -0.163419 0.361619
0.141784 -0.094414 0.363074
0.026349 0.123974 -0.111855
-0.266469 0.194741 -0.047974
0.021167 -0.121484 0.249240
-0.028216 0.163224 -0.399615
0.081742 -0.040100 0.218526
0.090450 -0.055016 0.247015
0.081680 0.000051 0.182501
0.002639 -0.177203 0.291149
0.196912 -0.227979 0.463580
0.043643 -0.091757 0.227465
0.026041 0.005887 0.026486
-0.055657 -0.034778 0.146847
0.065313 -0.045809 0.189620
-0.179355 0.170508 -0.121669
0.131156 -0.065726 0.329381
0.020005 0.020244 -0.032671
-0.173084 0.150621 -0.231006
-0.210334 0.092849 -0.290100
0.196291 -0.367145 0.482050
-0.055458 0.070314 -0.004995
-0.011442 0.076503 -0.264809
-0.027462 0.087109 -0.281189
0.079113 -0.000480 0.166658
0.009557 -0.007639 0.066165
0.046447 -0.228633 0.357805
-0.124079 0.146622 -0.297094
0.026727 0.120485 -0.114925
-0.026720 0.139726 -0.399967
-0.018259 0.144343 -0.754878
0.046792 -0.028064 0.128591
0.040906 0.007898 0.059143
-0.090224 0.044783 0.259038
0.083254 0.020318 0.144872
-0.031728 0.151111 -0.889678
0.023809 0.137990 -0.219842
0.082084 -0.031709 0.214568
-0.036400 0.124894 -0.463725
0.186926 -0.328933 0.456969
-0.283591 0.177021 -0.152626
0.080463 -0.000833 0.178034
-0.004438 0.090733 0.059403
0.049756 0.044101 -0.001500
-0.101843 0.127562 -0.355791
0.043046 -0.149579 0.283174
0.041311 -0.166878 0.299958
-0.038629 0.008349 0.060054
-0.000689 -0.145373 0.266637
0.067931 0.020332 0.077148
-0.240954 0.175524 -0.142426
-0.177312 0.164418 -0.157146
0.138373 -0.185291 0.372307
0.079597 -0.216177 0.354780
0.071639 0.025200 0.088669
-0.058372 0.045542 0.038072
0.000550 -0.179769 0.291850
0.062930 0.004654 0.103970
-0.036966 0.142121 -0.723818
0.086241 0.070425 0.037831
0.191468 -0.266066 0.439701
-0.051082 0.050060 0.067391
-0.017675 0.143837 -0.754199
-0.029364 -0.062430 0.175338
-0.029676 0.090559 -0.006424
-0.131401 0.146365 -0.287595
-0.103755 0.195216 -0.214594
-0.137530 0.145947 -0.276935
0.138007 -0.228491 0.385369
0.219611 -0.333283 0.471571
-0.032540 0.159956 -0.634683
0.044895 0.031787 0.007711
0.080609 0.075222 0.017849
0.018697 0.119326 -0.143659
0.163263 -0.361169 0.485892
-0.009195 0.084027 -0.313990
-0.031616 0.162593 -0.657174
0.002446 0.130422 -0.232820
-0.116862 0.062016 0.288460
0.131018 -0.109716 0.355876
-0.029259 0.122193 -0.195967
-0.020929 0.136630 -0.272838
-0.020810 0.158898 -0.665376
-0.225494 0.181063 -0.064113
0.047209 -0.233158 0.361505
-0.015660 -0.054133 0.164637
0.079273 -0.119984 0.279279
0.001356 0.116063 -0.352980
0.094594 0.028746 0.180638
-0.023183 0.136105 -0.327941
-0.025572 0.125941 -0.241215
-0.000170 0.074892 -0.274343
0.032132 -0.166527 0.293664
-0.116988 0.182915 -0.210885
-0.023553 0.139877 -0.712322
-0.064979 0.070620 0.154024
-0.066915 0.055322 0.161171
-0.033498 0.152665 -0.892648
-0.033017 0.094638 -0.298246
-0.017583 0.095604 -0.037422
-0.264149 0.195043 -0.066000
0.083380 -0.006650 0.195887
0.057553 -0.058337 0.194234
-0.026297 0.158713 -0.618294
-0.146936 0.180716 -0.137621
-0.061974 0.110505 -0.435221
0.086290 -0.177975 0.326809
-0.128840 0.178767 -0.190976
0.224511 -0.376663 0.489955
-0.045176 -0.006736 0.096641
0.103419 -0.265312 0.395196
0.115922 -0.072496 0.307504
-0.113181 0.044895 0.318330
0.011788 -0.005635 0.061770
0.229683 -0.377063 0.491484
-0.102264 0.183802 -0.260523
0.064368 -0.222466 0.358176
-0.042227 0.139070 -0.564387
0.088269 0.039326 0.097878
0.116468 -0.315538 0.439813
-0.020389 0.121242 -0.608177
-0.040194 0.162075 -0.886649
-0.268935 0.198811 -0.050136
0.051172 -0.047734 0.175825
-0.053921 0.059657 0.065937
0.062519 -0.170245 0.308287
-0.029596 0.035887 -0.020296
0.302373 -0.411088 0.524610
0.020274 -0.116017 0.243472
0.090002 -0.106269 0.284712
0.010392 -0.031406 0.118274
-0.042864 0.164712 -0.373826
-0.076046 0.189622 -0.280918
-0.020437 0.136432 -0.322498
-0.042824 0.093674 0.134887
-0.158708 0.168830 -0.162366
0.016355 0.108887 -0.218734
0.002470 -0.159368 0.278405
-0.011926 0.165258 -0.795574
0.093636 -0.196716 0.346807
-0.031700 0.124161 -0.563771
-0.003745 0.092352 -0.016608
-0.279626 0.186406 -0.136696
0.120236 -0.294918 0.419159
0.062958 0.051391 0.025996
0.021126 0.112247 -0.192526
-0.002803 0.063975 -0.207540
0.183547 -0.243567 0.433513
0.099828 -0.301361 0.422780
-0.039692 0.123599 -0.425572
0.001537 -0.127116 0.251845
0.130814 -0.194558 0.365823
-0.069102 0.069230 0.165315
-0.042390 0.165335 -0.796914
-0.191205 0.147010 -0.217096
-0.038016 0.148491 -0.527366
0.146268 -0.145271 0.384903
0.155536 -0.212916 0.399277
-0.005129 0.155257 -0.755604
-0.009057 0.162655 -0.780487
-0.014920 0.108011 -0.184794
-0.011739 0.156736 -0.754396
0.132135 -0.206182 0.371092
0.144100 -0.183427 0.382389
0.033910 -0.189392 0.315953
0.094314 -0.188978 0.339637
0.052840 0.009676 0.081601
0.000494 0.117457 -0.358079
0.075404 -0.243203 0.378304
0.020923 -0.029422 0.121875
-0.006788 0.128428 -0.405067
0.025596 -0.002284 0.048799
0.202737 -0.367971 0.482747
-0.122212 0.046758 0.328594
-0.050665 0.164441 -0.368222
-0.294762 0.201250 -0.078948
-0.014426 0.073777 -0.226665
0.087362 -0.262914 0.395959
0.022350 -0.006173 0.061314
-0.036468 0.142844 -0.741643
-0.075733 0.186765 -0.292089
-0.047164 0.082387 -0.040283
-0.029803 0.125783 -0.598412
-0.232606 0.178868 -0.106964
-0.238930 0.123609 -0.244580
0.038601 0.015311 0.028293
0.211798 -0.265831 0.468222
-0.043125 0.131441 -0.502809
-0.018732 -0.139659 0.264105
0.012607 0.045932 -0.133155
0.074121 -0.027977 0.187754
-0.007829 -0.045288 0.146432
0.091716 -0.285877 0.413098
0.022299 0.098251 -0.187962
-0.303310 0.205927 -0.050542
0.174560 -0.368529 0.487096
-0.025151 0.166440 -0.434994
0.255926 -0.350308 0.501771
0.077769 -0.234474 0.370984
-0.002970 0.074945 -0.249501
-0.228372 0.121111 -0.254157
-0.011529 0.094640 0.077419
0.060732 -0.035868 0.168114
0.051131 -0.086774 0.225290
0.211874 -0.308901 0.461366
-0.027639 -0.077951 0.199586
0.136355 -0.224520 0.382443
-0.013175 0.166178 -0.835331
0.082429 -0.215341 0.355201
0.012130 0.090004 -0.243424
-0.042271 0.063466 -0.028656
-0.116215 0.170160 -0.259901
-0.008309 -0.000033 0.048887
0.010372 0.057903 -0.170750
0.087512 0.012186 0.191226
-0.031204 0.148274 -0.790012
0.180049 -0.250954 0.427014
0.101307 -0.064582 0.275474
-0.146260 0.128968 -0.285585
0.238046 -0.299540 0.496263
-0.149902 0.110613 -0.302233
-0.204736 0.119998 -0.263920
-0.081906 0.089231 0.219752
0.149289 -0.143539 0.392338
-0.046367 0.136715 -0.570730
-0.117823 0.047800 0.312302
-0.105361 0.142594 -0.343265
-0.055344 0.042899 0.174647
0.088948 0.065838 0.039381
0.048278 -0.064995 0.192150
-0.239653 0.185993 -0.061924
0.031782 -0.200456 0.324958
-0.037216 0.171686 -0.974239
0.067082 0.027763 0.068249
0.067027 -0.264927 0.399565
0.122971 -0.105210 0.335337
-0.024656 0.045779 -0.069943
-0.226019 0.179416 -0.056557
-0.037149 0.128508 -0.570092
0.069767 0.098360 -0.010675
0.034406 0.120734 -0.088562
-0.251756 0.190537 -0.073553
0.162812 -0.210176 0.408088
-0.043250 0.164196 -0.382939
0.068516 0.026970 0.072583
0.234940 -0.418578 0.516435
-0.031610 0.150131 -0.513933
0.034820 0.108221 -0.085561
0.070204 -0.055722 0.218788
-0.115942 0.134608 -0.331421
0.023476 0.102865 -0.186775
-0.031047 0.058359 -0.087441
-0.037947 0.055535 -0.040486
0.218140 -0.411281 0.518134
0.080158 0.058832 0.047387
-0.041674 0.137863 -0.578255
0.016204 0.107459 -0.223062
-0.040289 0.156580 -0.630000
0.174748 -0.318276 0.447242
-0.007072 -0.003452 0.057018
-0.008625 0.032801 -0.048404
-0.171640 0.177503 -0.102449
0.076911 0.048476 0.049857
0.107547 -0.037455 0.269611
-0.308400 0.207508 -0.041161
0.042377 0.105550 -0.061405
0.237740 -0.424775 0.527448
0.034380 -0.028603 0.115578
-0.001828 0.078185 -0.298838
0.000387 0.073574 -0.268011
0.217467 -0.326414 0.468253
0.069830 0.002253 0.125024
-0.315695 0.207224 -0.055468
-0.259717 0.186008 -0.122388
-0.343934 0.212410 -0.039252
-0.012001 0.106116 -0.431152
0.060312 -0.000962 0.108299
0.077343 -0.150563 0.302017
-0.195421 0.171716 -0.107990
0.116926 -0.250121 0.387901
0.103790 -0.095427 0.296290
-0.033467 0.113288 -0.258630
-0.035721 -0.032030 0.132017
0.066107 -0.083379 0.232808
0.126482 -0.109203 0.341604
0.097683 -0.068578 0.271809
0.090154 0.034550 0.148479
-0.045087 0.157762 -0.424124
0.008553 -0.009190 0.075167
-0.024705 0.071762 -0.185044
-0.041803 0.055153 -0.017927
0.227804 -0.409275 0.508577
-0.190350 0.133423 -0.248246
-0.034711 0.089812 -0.217071
-0.282338 0.146267 -0.206296
-0.238116 0.184227 -0.076618
-0.037139 0.103801 -0.180277
0.026740 0.107304 -0.155238
0.016089 -0.148484 0.273823
-0.052621 -0.036895 0.146806
-0.312384 0.205061 -0.068613
0.026821 -0.044489 0.148390
0.079892 0.034653 0.087731
-0.127478 0.163541 -0.252121
0.099094 -0.053075 0.263511
-0.037378 0.145482 -0.762137
-0.237237 0.165810 -0.171035
-0.089531 0.187492 -0.262232
0.243541 -0.301564 0.501578
-0.327370 0.186347 -0.132643
0.176352 -0.334090 0.456507
0.172035 -0.359973 0.478124
-0.265407 0.193309 -0.033678
-0.126075 0.191611 -0.158057
-0.006626 0.127254 -0.418526
0.084149 0.025903 0.134279
-0.004455 -0.153705 0.273178
-0.036197 0.160118 -0.647695
0.198802 -0.365176 0.481522
0.047667 0.079459 -0.043829
0.023170 0.105879 -0.163430
-0.020686 0.165633 -0.757273
-0.028392 0.097700 0.109047
0.010097 -0.080341 0.198843
0.065114 -0.192766 0.329811
0.105142 -0.262865 0.394950
0.096496 -0.101918 0.291143
-0.008483 0.162373 -0.791948
-0.059305 0.010105 0.080059
-0.042301 0.046788 0.025280
0.109878 -0.035184 0.270530
0.133840 -0.322060 0.446858
-0.014494 0.155273 -0.690294
-0.014356 0.146571 -0.774126
0.010778 0.107150 -0.272369
-0.230689 0.178365 -0.079811
-0.015346 0.145556 -0.500505
0.127769 -0.087308 0.337028
0.130642 -0.073994 0.343269
-0.206932 0.165717 -0.150790
0.007533 0.070660 -0.215853
0.060027 -0.121015 0.271317
0.143190 -0.163549 0.378574
-0.105733 0.049565 0.284153
0.000863 -0.038967 0.131601
-0.092339 0.099403 -0.378000
-0.032956 0.159558 -0.634791
0.271184 -0.430184 0.522339
0.171477 -0.176158 0.425175
0.117023 -0.086421 0.319012
-0.016074 0.152069 -0.612115
-0.243472 0.159493 -0.193159
-0.050882 0.068589 -0.005945
0.140173 -0.291235 0.416572
0.141849 -0.136439 0.377578
0.015942 -0.036897 0.130586
0.227587 -0.373686 0.489488
-0.049519 0.059708 -0.011870
-0.097110 0.196731 -0.229436
-0.025236 0.159409 -0.632981
0.114021 -0.080000 0.307765
0.109636 -0.035721 0.271000
-0.027439 0.152005 -0.972804
-0.020095 0.163659 -0.731086
-0.043630 0.090727 -0.072526
0.064917 -0.213614 0.349188
-0.008520 0.157813 -0.957538
-0.011965 0.152750 -0.693364
-0.020206 0.093121 0.036940
0.034668 0.102288 -0.099794
0.012173 -0.006773 0.069745
0.268624 -0.439850 0.528008
0.018272 0.089974 -0.208855
0.083533 0.018570 0.151831
-0.070107 0.140414 -0.425508
0.174469 -0.233885 0.420613
-0.034329 0.079940 -0.166626
0.024212 -0.021204 0.103515
-0.004480 0.164820 -0.988778
0.138472 -0.143882 0.373159
0.004697 0.072663 -0.238429
0.016598 -0.150937 0.277777
0.081527 -0.128108 0.287326
0.107393 -0.007365 0.248409
-0.322349 0.205358 -0.068804
0.092719 -0.018130 0.234073
0.074617 0.087224 0.001087
-0.204491 0.150454 -0.194956
-0.327888 0.183086 -0.153452
-0.047980 0.083321 -0.035864
0.164381 -0.181312 0.411523
-0.032956 0.126037 -0.580799
-0.039384 0.050283 0.000640
0.044075 0.084264 -0.057056
-0.195865 0.110898 -0.276772
0.053380 -0.021005 0.128959
-0.032634 0.162849 -0.673539
0.184997 -0.227641 0.440404
-0.276537 0.193865 -0.107221
-0.011563 0.178643 -0.935315
0.013617 0.046499 -0.134184
-0.010445 0.127128 -0.617536
0.236787 -0.352694 0.487535
0.006295 -0.061852 0.173479
0.163376 -0.173492 0.411548
0.174415 -0.256260 0.421987
-0.143215 0.181335 -0.143969
0.076999 -0.251510 0.385130
-0.107478 0.042042 0.317125
0.057546 -0.240751 0.372412
0.096251 0.066155 0.047454
-0.042938 0.004634 0.074378
-0.058146 0.076589 0.139439
-0.031131 0.090730 0.059001
-0.031375 0.005562 0.057281
0.183234 -0.257821 0.430508
-0.041406 0.171732 -0.871119
-0.048548 0.077597 0.054475
0.006572 -0.184644 0.299042
-0.249720 0.186184 -0.072556
-0.037118 0.147147 -0.757732
0.091693 0.030401 0.164292
0.091295 -0.165199 0.321350
0.034326 -0.096592 0.230166
0.111001 -0.295453 0.418546
0.092916 -0.214363 0.357746
-0.089825 0.141747 -0.380156
-0.002193 -0.145777 0.269899
0.152122 -0.301839 0.428134
0.012632 0.009509 0.016515
0.131642 -0.198502 0.367794
0.189194 -0.268740 0.439424
0.111039 -0.099535 0.313407
-0.177342 0.159570 -0.179871
0.105804 -0.049856 0.275866
0.151194 -0.202161 0.393087
-0.012207 0.149280 -0.641097
0.153131 -0.229435 0.397259
-0.047015 0.084651 -0.042419
0.215243 -0.258938 0.482614
0.123750 -0.053693 0.310080
-0.038759 0.067063 -0.064604
-0.036854 0.103477 -0.232967
-0.009934 0.161623 -0.954339
0.182834 -0.239784 0.430185
0.310009 -0.470886 0.540236
-0.016532 0.158556 -0.702153
0.160655 -0.330966 0.452546
-0.139738 0.182333 -0.139756
0.137448 -0.316722 0.439559
0.236621 -0.334761 0.484217
-0.054582 0.008683 0.080183
-0.183438 0.159170 -0.181513
-0.025056 -0.121977 0.248752
-0.079227 0.060642 0.206357
0.039799 0.016155 0.028834
0.055032 -0.150683 0.288362
0.131981 -0.195761 0.366654
-0.067382 0.049707 0.173079
-0.307417 0.203557 -0.077008
-0.026187 0.051866 -0.093227
-0.011681 0.167490 -0.832786
-0.068822 0.137005 -0.433902
0.108748 -0.080062 0.298916
0.068737 -0.063147 0.217742
-0.059371 0.074951 0.134480
-0.027949 -0.081423 0.202540
0.079279 0.049310 0.052803
0.010728 -0.155729 0.278492
0.083181 0.015891 0.156366
-0.125837 0.048720 0.331711
-0.228914 0.160028 -0.187751
0.043189 -0.110660 0.245832
-0.034247 0.048387 -0.051936
0.020643 -0.014918 0.085114
0.141458 -0.293080 0.418750
-0.038613 0.163372 -0.924505
-0.026018 0.174105 -0.830854
0.081827 0.023734 0.122672
-0.014117 0.075001 -0.244620
0.030282 0.111879 -0.100610
-0.272896 0.193897 -0.092301
-0.230975 0.176326 -0.107075
-0.198809 0.159460 -0.170231
-0.040901 0.094169 -0.255712
-0.041850 0.057398 -0.022139
0.194668 -0.236400 0.450778
0.269251 -0.408843 0.511784
-0.010135 0.039677 -0.079677
-0.035863 -0.006821 0.086136
-0.215842 0.185323 -0.038565
-0.244123 0.162766 -0.186106
0.050332 -0.071034 0.203226
-0.049556 0.133419 -0.486501
0.055834 -0.178018 0.313254
-0.012110 0.121965 -0.616896
0.045071 -0.001094 0.077160
-0.179208 0.123621 -0.267452
-0.115287 0.061995 0.304501
0.088147 -0.038504 0.234842
-0.011995 -0.015101 0.086560
0.174427 -0.374323 0.497593
0.176013 -0.181933 0.438041
0.095633 -0.296945 0.420411
0.092306 -0.248561 0.384326
0.048489 0.026699 0.037852
-0.065544 0.064541 0.156215
-0.037851 0.103470 -0.115783
-0.042934 0.170608 -0.855020
-0.107601 0.179045 -0.260859
-0.187587 0.160748 -0.171114
0.264893 -0.347811 0.510149
-0.042910 0.153068 -0.695186
-0.018674 0.137113 -0.346973
0.114431 -0.286406 0.411591
0.046887 -0.238557 0.366345
-0.017961 -0.122773 0.249142
-0.243116 0.186814 -0.055032
-0.049167 0.140241 -0.472177
0.167782 -0.361445 0.482667
0.243253 -0.306370 0.504537
0.014582 -0.019914 0.094248
0.291444 -0.428999 0.523807
0.192070 -0.229987 0.449234
-0.014778 0.078698 -0.267412
-0.258616 0.193054 -0.072507
-0.291811 0.204102 -0.045870
-0.247330 0.140958 -0.217698
0.016316 0.118978 -0.157520
0.135311 -0.094583 0.365297
0.061321 -0.237996 0.370946
0.001808 -0.023009 0.100333
0.240398 -0.335953 0.487125
-0.032481 -0.011611 0.094603
-0.092469 0.164153 -0.313215
0.080878 -0.268430 0.401953
0.117070 -0.206380 0.362232
-0.268928 0.189643 -0.092775
0.118473 -0.315371 0.439834
-0.005586 0.135819 -0.217020
0.135785 -0.073073 0.342378
-0.017521 -0.051272 0.155167
0.040720 0.073782 -0.071419
-0.085578 0.192004 -0.260376
-0.011440 0.134744 -0.375633
-0.059089 -0.037258 0.159400
0.049066 -0.046616 0.162465
-0.236110 0.130708 -0.238756
0.076780 0.016335 0.145059
0.013405 -0.189053 0.307965
-0.186128 0.160603 -0.173276
0.092965 -0.229522 0.369466
0.084363 -0.287012 0.416727
-0.056801 0.037236 0.152381
0.073049 -0.039108 0.197826
-0.035935 0.096912 -0.224183
0.089551 0.020680 0.181091
0.034294 -0.167051 0.294537
0.076935 0.031961 0.083545
0.192149 -0.367412 0.482959
0.052513 0.108088 -0.033638
-0.158178 0.180316 -0.115701
-0.029333 0.168724 -0.751856
-0.046654 0.148239 -0.705641
0.097700 0.050450 0.091877
-0.058346 0.077605 0.142152
-0.014118 0.139740 -0.462069
0.007243 0.126583 -0.181346
-0.180020 0.137862 -0.241188
0.196373 -0.258742 0.446632
-0.128033 0.065914 -0.350952
0.122181 -0.265351 0.397285
0.039076 -0.083685 0.214069
0.013506 -0.004552 0.057325
0.038602 0.098810 -0.076204
-0.210761 0.173388 -0.107004
0.046478 -0.132619 0.268644
-0.221086 0.175301 -0.111787
-0.100846 0.173953 -0.283367
0.129246 -0.230200 0.380708
-0.017981 0.162762 -0.739694
0.051498 -0.191443 0.325461
-0.228711 0.177409 -0.083498
-0.111440 0.111745 -0.342171
0.186294 -0.196553 0.449443
-0.008108 0.149410 -0.849793
-0.002546 -0.160571 0.277898
-0.008810 0.140925 -0.677338
-0.134157 0.192952 -0.140229
0.137288 -0.141272 0.368256
0.099245 -0.065165 0.272900
-0.033426 0.134628 -0.673183
-0.034112 0.121569 -0.461818
0.005135 0.129606 -0.216443
0.070037 -0.047592 0.200287
-0.306553 0.165819 -0.175868
0.063353 -0.019023 0.146889
-0.011455 -0.162183 0.280356
0.042979 -0.158210 0.290034
-0.040749 0.162587 -0.682996
-0.253840 0.190217 -0.092346
0.124352 -0.321833 0.448212
-0.038885 0.081978 -0.013549
0.145186 -0.133631 0.384515
-0.041874 0.164933 -0.726548
0.146937 -0.307460 0.432062
0.254869 -0.312225 0.512513
-0.031846 0.087350 -0.261593
0.108837 -0.084850 0.299231
-0.278105 0.199371 -0.040570
0.033615 -0.176551 0.303684
-0.001706 -0.017618 0.084750
0.063005 0.004053 0.116038
-0.256604 0.181593 -0.139274
0.157045 -0.306213 0.432670
-0.047570 0.050010 0.047602
-0.105281 0.154952 -0.301648
-0.049107 -0.071550 0.197449
-0.037131 0.178620 -0.979875
-0.011640 0.149670 -0.664681
-0.133804 0.157458 -0.251211
-0.002391 0.055510 -0.146798
-0.054520 -0.053833 0.178689
-0.152405 0.188716 -0.101175
0.090018 -0.194780 0.340638
0.131977 -0.070344 0.334706
-0.012453 -0.029719 0.116557
-0.006203 0.172580 -0.986225
0.082651 0.004956 0.178770
0.154999 -0.134333 0.402668
0.028756 0.121291 -0.094005
0.077882 -0.145732 0.298282
0.093019 -0.128513 0.300753
-0.005314 0.168092 -0.985423
0.102420 -0.170160 0.331202
-0.066051 0.088024 -0.424883
0.093196 0.019203 0.206176
0.001088 -0.021520 0.096391
-0.052734 0.041956 0.023633
-0.309285 0.173394 -0.156649
0.100081 -0.113904 0.302026
-0.247987 0.187326 -0.025067
-0.110395 0.051125 0.288538
0.237591 -0.291805 0.501902
-0.001133 0.128947 -0.290684
0.074428 -0.003800 0.154071
-0.014739 0.148852 -0.969263
-0.036916 0.156702 -0.896711
-0.009985 0.052056 -0.117520
-0.119176 0.047924 0.320104
-0.132707 0.124543 -0.305257
0.255451 -0.329567 0.509603
-0.037809 0.178840 -0.964505
0.080967 0.020134 0.154966
0.095620 0.031132 0.177846
-0.030254 0.167625 -0.746634
-0.027657 0.159687 -0.634795
-0.028833 0.183601 -0.931288
0.063818 -0.004186 0.121864
-0.338248 0.205732 -0.068972
0.044146 -0.154680 0.287567
-0.083676 0.149597 -0.364372
0.069254 -0.027662 0.174221
0.068875 -0.070615 0.226348
-0.042633 0.076085 -0.096559
-0.039064 0.094581 -0.486166
0.014033 -0.180663 0.299948
0.123965 -0.237150 0.382874
-0.032805 0.125109 -0.570362
0.155442 -0.211128 0.397278
-0.022151 0.141017 -0.421152
0.079132 -0.032512 0.204503
-0.044221 0.150103 -0.594442
-0.265696 0.144558 -0.206686
0.210181 -0.252443 0.474085
-0.098001 0.164846 -0.304588
-0.318823 0.207332 -0.034349
0.275803 -0.448824 0.533277
-0.224750 0.183002 -0.051200
-0.025234 0.140527 -0.418307
0.031763 -0.002403 0.036770
-0.076550 0.082978 0.206038
0.091210 -0.010259 0.223665
-0.299515 0.199989 -0.092831
-0.039705 -0.097251 0.223928
-0.039682 0.074535 -0.070552
0.135555 -0.240492 0.388973
-0.042753 -0.068717 0.190621
0.044694 0.004914 0.061721
0.192360 -0.362619 0.479209
-0.196089 0.183739 -0.052418
0.087875 -0.010533 0.212326
-0.071716 0.160728 -0.356444
-0.154829 0.113669 -0.294107
-0.018511 0.154528 -0.595326
-0.267687 0.140288 -0.217658
-0.042724 0.152448 -0.661525
0.085202 0.033484 0.112493
-0.085924 0.040590 0.260614
0.091142 -0.238427 0.374751
-0.076489 0.130786 -0.416673
0.031699 0.042533 -0.050312
-0.060489 0.025363 0.065555
0.101114 -0.139186 0.316290
-0.037229 0.153762 -0.449959
0.139366 -0.128342 0.372089
-0.098123 0.126456 -0.366189
0.066036 -0.157307 0.299039
-0.321146 0.208824 -0.048389
-0.184372 0.171246 -0.113413
0.020550 -0.173237 0.296247
-0.016330 0.105383 -0.150519
-0.042874 0.054903 -0.013801
-0.013377 0.159897 -0.760001
-0.034826 0.165588 -0.676402
-0.200902 0.139116 -0.234479
-0.044980 0.151713 -0.766165
0.086395 0.017846 0.162156
0.127909 -0.083610 0.334887
0.035615 -0.224202 0.350583
-0.019906 0.062761 -0.151203
-0.032372 0.156668 -0.931437
0.013867 -0.199227 0.314856
0.085558 -0.039332 0.225690
0.120079 -0.217254 0.370390
0.093016 0.063392 0.049723
-0.038683 0.015681 0.045688
0.241980 -0.297858 0.503318
-0.057654 -0.014658 0.117935
-0.071299 0.188473 -0.292906
0.075667 0.059264 0.032337
-0.228871 0.096292 -0.279280
0.064228 -0.007424 0.132222
-0.274362 0.197999 -0.032732
0.018919 -0.159123 0.283692
-0.046647 0.169656 -0.894081
-0.028831 0.125000 -0.261196
0.115493 -0.071230 0.307974
-0.130084 0.171775 -0.215115
0.254230 -0.332731 0.502459
-0.042479 -0.097132 0.224062
0.071648 0.005717 0.138540
-0.191296 0.157057 -0.193377
0.014188 0.011762 0.008520
0.074790 -0.211586 0.347630
0.009706 -0.170834 0.291912
-0.039662 0.023445 0.032832
0.268461 -0.440182 0.532310
0.236909 -0.352675 0.485966
0.083830 -0.149168 0.305459
-0.035570 0.110879 -0.146729
-0.018352 0.157457 -0.663940
0.210428 -0.249773 0.476324
-0.163097 0.171855 -0.142239
0.196772 -0.236999 0.461334
0.153701 -0.343081 0.464973
0.081290 -0.148629 0.303511
0.080483 -0.214703 0.355693
0.012764 -0.173805 0.292923
0.274846 -0.367416 0.509757
0.046446 -0.105547 0.247336
0.115787 -0.314257 0.436195
0.072180 0.065506 0.019570
0.236747 -0.310002 0.488580
0.083276 0.044936 0.081884
0.090008 -0.100989 0.281015
0.129948 -0.181449 0.360785
-0.010340 0.146941 -0.910204
0.055702 -0.032455 0.156226
0.088628 0.075078 0.027257
-0.025593 0.176211 -0.872675
-0.027583 0.042287 -0.004892
0.092359 0.001854 0.223602
-0.343091 0.197760 -0.099429
0.071654 -0.081594 0.240632
-0.029886 0.166356 -0.422905
0.012594 0.013226 0.008149
0.027684 -0.223694 0.351283
-0.011653 -0.014304 0.088864
-0.322878 0.180535 -0.151449
-0.049944 0.084982 0.134781
0.144427 -0.131557 0.381764
0.086143 -0.038543 0.229628
0.070882 -0.003787 0.141503
0.236449 -0.317759 0.484724
0.026413 0.013628 0.008854
0.147639 -0.144034 0.387149
-0.041546 0.033468 0.012297
-0.025275 0.140774 -0.421910
-0.023522 0.168193 -0.768717
0.133494 -0.091282 0.349772
0.002767 0.070635 -0.265909
-0.001462 0.131145 -0.339820
0.034591 0.123492 -0.076567
0.170690 -0.167090 0.423990
0.270079 -0.436081 0.523983
0.130634 -0.210064 0.372001
-0.149159 0.147834 -0.257704
-0.032952 0.085491 -0.227472
-0.035822 0.157294 -0.891853
-0.014262 0.167314 -0.833884
-0.103292 0.142551 -0.343209
0.066377 0.078664 -0.001522
