-0.049635 -0.198300 0.552203
0.149413 -0.384024 -0.372210
-0.034126 -0.182789 -0.805251
0.224889 -0.098597 -0.526901
0.007662 0.213856 0.807963
-0.002102 -0.003889 -0.982779
-0.234933 -0.168562 0.506130
0.064068 0.097004 0.525756
0.047729 0.293022 0.194225
0.253580 0.231574 -0.459239
0.014434 0.008416 -0.078496
-0.068919 0.033204 0.610662
-0.190490 -0.123379 0.469905
-0.078432 -0.048033 -0.021619
-0.073829 -0.038719 -0.694170
-0.088272 0.038027 0.130979
-0.014824 0.003644 -0.972115
0.212652 -0.051412 -0.554588
-0.055204 -0.002411 -0.693969
0.107722 -0.053149 0.618117
0.096776 -0.033569 -0.523108
-0.267325 -0.312020 0.508624
0.021524 0.131412 -0.832254
-0.120868 -0.047297 0.308487
-0.112897 -0.041808 0.456663
-0.124488 -0.052549 0.373236
-0.047899 -0.003812 -0.676712
-0.394099 -0.273313 0.498942
0.229155 -0.073529 -0.557139
0.237853 -0.087606 -0.558233
-0.126053 -0.349464 0.083717
-0.314801 0.203350 -0.496894
-0.052304 0.301321 -0.573320
-0.088327 -0.007517 0.090061
0.136057 -0.260871 -0.337725
-0.076343 -0.273179 0.048119
-0.012080 0.384405 0.814597
-0.227964 -0.223999 -0.606353
-0.260261 0.172185 -0.451579
-0.223809 -0.185612 0.519906
-0.125815 -0.067173 0.477076
-0.170203 -0.154951 -0.586087
-0.135180 -0.038365 0.446562
-0.092952 0.007449 -0.489735
-0.094546 -0.179490 0.063725
0.210951 0.226661 -0.417199
0.172187 -0.254756 -0.359546
-0.069326 -0.034606 -0.724560
0.138028 -0.015243 -0.021694
0.144574 -0.182177 -0.345621
-0.015657 0.190632 -0.551605
-0.060334 -0.026624 -0.733711
0.026546 -0.255528 0.513354
-0.089007 -0.039369 0.200257
0.024340 0.252202 0.809253
0.202497 -0.144529 0.224113
0.317309 -0.065214 -0.098375
-0.331303 -0.238153 0.521152
-0.046365 -0.002000 -0.517798
-0.101876 -0.017626 0.245613
0.294248 -0.034738 -0.084963
0.156202 0.031457 -0.770991
-0.120655 -0.074464 0.503096
-0.079998 0.359417 0.232047
-0.051835 0.205295 0.262167
-0.141230 -0.126853 -0.595051
-0.063186 0.029696 0.075233
-0.286064 0.102957 -0.397111
0.011986 0.040659 0.598486
-0.110272 -0.315246 0.065381
0.022566 0.374371 0.131040
0.260409 -0.096768 -0.601190
-0.035646 -0.002985 -0.588460
0.027422 -0.245374 0.520044
0.002504 -0.091723 -0.338846
-0.171614 0.313664 -0.205253
-0.182091 -0.104594 0.447747
-0.145171 0.328967 -0.228756
0.003894 -0.074707 -0.861258
0.151727 0.030945 -0.768071
-0.053092 -0.152554 -0.790922
-0.125977 0.177077 -0.172002
-0.055503 0.040257 -0.653949
0.182292 -0.000545 -0.542893
0.044546 0.191212 -0.864962
-0.071832 0.126819 0.231997
-0.031040 0.293143 0.844956
-0.001470 0.009748 0.592020
-0.067032 0.012684 -0.535139
-0.037396 -0.007341 -0.783593
-0.246606 -0.326564 0.515527
-0.071167 -0.001394 0.319511
0.095563 -0.064284 0.622151
0.005631 -0.040231 0.698188
-0.236471 -0.307448 0.520986
0.235416 -0.277235 0.177325
-0.137112 -0.461085 0.140064
0.180087 -0.105505 0.563481
-0.034580 0.009883 0.562692
0.025319 0.209163 -0.861823
0.064047 -0.175717 -0.315037
-0.395060 -0.381054 0.412437
0.113199 0.112235 -0.357671
-0.287002 -0.325741 0.496971
-0.036687 0.326133 0.240874
0.264914 0.156247 0.491104
-0.066730 0.101325 0.759769
-0.039711 -0.110347 0.546717
-0.088020 -0.193124 0.565281
-0.092888 -0.072915 -0.645051
-0.057961 0.188059 0.841495
-0.018396 -0.062011 -0.856145
-0.049936 0.004076 -0.387440
-0.154131 0.301808 -0.197967
-0.052406 0.191432 0.254588
0.006508 -0.015486 0.595845
-0.039768 -0.005265 -0.550961
-0.060652 -0.343077 0.047234
0.128400 -0.027028 -0.029385
-0.039839 0.119247 -0.576487
0.003191 0.041499 -0.471518
0.223207 -0.281841 -0.406509
0.004990 -0.183758 0.539176
0.224142 -0.357806 -0.430909
-0.129595 -0.268760 0.090344
-0.080945 0.006167 0.039959
-0.147784 -0.054332 0.377035
-0.004994 0.305041 0.232456
-0.077816 -0.009596 0.203362
0.263651 0.233002 0.479118
-0.067410 0.309157 0.252415
-0.116458 -0.400072 0.102026
0.117906 0.017455 -0.780542
-0.302644 0.207206 -0.494268
-0.075443 0.029007 0.480001
0.028238 0.346303 0.157920
-0.227654 0.139733 -0.423738
0.242122 -0.286821 0.166041
-0.028400 0.241335 -0.553771
0.210799 -0.049778 -0.547462
-0.094102 0.238454 -0.189644
0.136345 -0.227852 -0.338529
0.032824 0.139001 0.768749
0.213052 -0.043714 -0.807031
-0.166607 -0.085452 0.414772
-0.073185 0.405336 0.179896
0.180245 -0.264287 -0.366301
0.266952 -0.259334 0.150545
0.019168 0.286160 -0.604372
-0.036530 0.091771 -0.592798
0.121529 0.107478 -0.364389
0.027149 -0.067010 0.711224
-0.052853 0.350241 0.227150
-0.046548 -0.233858 0.567141
-0.091035 -0.010674 0.198418
-0.071807 0.019465 0.398081
0.296901 0.276859 0.413799
-0.063056 0.328459 0.245846
-0.371694 -0.318838 0.470079
-0.059849 -0.012061 -0.181263
-0.154751 0.053330 -0.414958
-0.058411 -0.323706 0.044961
0.098064 0.099762 -0.369530
-0.063583 0.011845 0.251670
-0.008799 0.009114 -0.993191
0.270446 0.157053 0.485487
0.235524 0.137691 -0.393450
-0.073138 -0.039220 -0.716622
-0.099755 0.208467 -0.167454
-0.071700 0.000973 0.373695
-0.293787 -0.274031 0.520742
-0.284139 0.135097 -0.415337
-0.041109 0.005718 -0.701359
-0.293700 -0.350543 0.481303
-0.012569 0.318386 -0.618975
-0.327030 -0.251620 0.520590
-0.004492 -0.009940 -0.862160
0.025196 0.171949 0.788910
-0.118190 -0.105029 0.536440
0.019475 0.219622 0.802945
0.028595 0.059286 -0.400522
-0.140208 -0.027185 0.478811
-0.086464 -0.013829 -0.064565
-0.057191 0.169453 0.833169
0.297756 -0.182428 0.114970
-0.039951 0.023598 -0.897526
-0.079189 0.037948 0.592583
-0.062472 0.161134 0.248567
-0.056097 0.112868 0.787211
-0.278412 0.171934 -0.456414
-0.097034 -0.193965 0.068509
-0.000747 0.119444 0.776654
0.134854 -0.274522 -0.339089
0.223362 0.004983 -0.817671
0.271771 -0.038132 -0.057529
-0.082111 0.006154 0.159921
-0.231418 0.328743 -0.215747
-0.284450 0.100282 -0.397911
-0.242270 0.071316 -0.394056
0.039078 -0.053717 0.691814
-0.009984 -0.185275 0.547336
-0.024487 0.000634 -0.119474
0.177536 -0.059030 0.563577
-0.188352 -0.223113 -0.589151
0.252932 -0.025616 -0.607089
-0.132453 0.143174 -0.169622
-0.004905 -0.049077 0.714722
-0.396148 -0.298413 0.467268
0.032240 0.180254 0.788804
-0.146292 0.204601 -0.157167
0.173479 -0.061780 -0.013686
-0.101305 -0.209385 0.064117
0.221160 -0.010842 -0.042010
-0.157091 0.315968 -0.212223
-0.101888 -0.032514 0.225084
0.276631 0.217369 0.474967
0.129627 0.111464 -0.359327
-0.018318 -0.087422 -0.853170
-0.020823 -0.171164 -0.817949
-0.084153 0.049471 0.161449
-0.035880 0.005257 -0.781922
-0.118922 -0.051421 0.477602
-0.000421 0.221594 0.812425
-0.073890 -0.198168 0.560814
-0.119293 0.221056 -0.171738
-0.015207 0.278118 0.249859
0.022192 0.061898 0.508111
-0.242142 -0.312466 0.515947
0.247806 -0.021905 -0.600053
-0.008781 0.301050 -0.602943
-0.016866 0.162246 -0.823446
-0.049054 0.050562 0.663241
-0.035328 -0.000877 0.549359
-0.348722 -0.288899 0.499578
0.041295 0.246307 0.799175
0.242762 -0.070533 -0.578914
0.203433 -0.050705 -0.544566
0.009191 0.329126 -0.648896
0.035866 0.138538 0.776369
0.307328 0.185234 -0.488633
-0.144719 0.052731 -0.428223
0.214275 0.271610 0.491261
0.223909 -0.025457 -0.567835
0.256358 -0.225919 0.181812
-0.198503 -0.177242 -0.589577
0.017908 0.292799 -0.610650
-0.217229 -0.188916 0.500541
0.328862 -0.093664 -0.110184
-0.083020 -0.037657 -0.059337
0.156029 0.156775 -0.355369
0.143560 -0.027537 -0.762709
-0.070401 0.160864 0.866929
0.095834 -0.238069 -0.311865
0.005129 -0.082724 -0.857260
0.152347 0.022693 -0.794590
0.211278 0.185074 0.523081
-0.166017 0.383071 -0.277582
0.023982 -0.249494 0.519011
-0.104027 -0.061829 0.491057
0.039831 0.170878 -0.852333
-0.017816 -0.202649 0.545725
-0.109027 -0.349284 0.065628
-0.060592 0.010358 -0.458374
0.154840 0.104193 -0.352889
0.230036 -0.042550 -0.571579
0.280296 -0.259485 0.129909
0.125963 -0.355089 -0.356109
0.019354 -0.005921 -0.065263
-0.135857 -0.036222 0.463286
0.276144 -0.088129 -0.064152
0.004575 -0.145382 -0.838395
0.086550 -0.277767 -0.290966
-0.250910 -0.332524 0.501190
0.009947 0.256116 -0.580453
0.120398 -0.189631 -0.333447
-0.121605 -0.046342 0.323591
0.152292 0.143559 0.542422
-0.358791 -0.378698 0.441735
0.157278 -0.040804 -0.007939
-0.028878 0.410332 0.128939
-0.126837 0.033012 -0.446856
-0.052277 0.025531 -0.666762
0.086201 -0.005502 -0.027706
-0.044300 -0.026500 -0.819182
-0.072260 0.007192 -0.280490
0.170241 -0.232589 -0.364693
0.019897 0.053259 -0.419011
-0.304495 0.182311 -0.469101
-0.192832 0.072205 -0.402194
-0.061170 0.007234 0.378878
0.202587 0.091830 -0.361683
-0.016033 0.105711 0.765142
-0.061357 0.013570 -0.385776
0.020669 0.347675 0.166594
0.089454 0.111855 0.534775
-0.103303 -0.349028 0.064077
0.349930 -0.039779 -0.127156
-0.097702 0.338525 0.255197
0.005399 0.372142 0.154569
-0.066789 0.056325 0.695943
-0.314130 -0.298085 0.507598
0.216021 0.155609 0.523060
-0.019541 -0.089449 -0.848370
-0.022483 -0.045035 -0.924167
-0.131028 -0.035186 0.400426
-0.204399 0.312455 -0.206234
0.029367 0.291670 0.209971
0.056453 -0.089102 0.714094
0.333699 0.284670 0.359352
-0.127851 -0.248171 0.088810
-0.082353 -0.051502 -0.665181
-0.146396 -0.448323 0.155799
-0.058352 0.015486 -0.506966
-0.116696 -0.152463 0.552812
-0.114395 -0.326432 0.064742
-0.076393 0.015251 0.431545
0.232761 -0.182739 0.199890
0.058211 -0.102536 0.712549
0.224770 -0.099136 -0.523182
0.025589 0.298765 -0.627949
0.332152 -0.093574 -0.112912
-0.039536 0.350503 0.219205
-0.032920 -0.205565 0.552442
0.153998 -0.003099 -0.018879
0.254889 0.282891 0.463786
-0.106734 0.131786 0.848958
0.257933 -0.039492 -0.607828
-0.088055 -0.026440 -0.066045
0.297009 0.145297 -0.447884
0.326020 0.235853 0.405063
-0.097408 -0.296541 0.058081
0.300663 0.205683 0.451642
0.280736 0.157843 -0.438214
-0.220427 0.036731 0.522538
0.036873 0.180640 0.789504
0.028406 -0.238698 0.518861
-0.357155 -0.346679 0.433410
0.213697 -0.059353 -0.546652
0.344422 -0.048349 -0.131583
0.033392 -0.229624 0.520651
-0.052850 0.255388 0.265869
-0.232033 -0.181708 -0.592740
-0.184741 -0.110133 0.452096
-0.048179 0.135549 0.797935
-0.047029 0.004612 -0.453960
0.242728 0.199034 -0.428916
0.053366 0.147028 0.789461
0.154892 0.162515 -0.353397
-0.022260 -0.058855 -0.857542
0.165632 -0.048785 -0.766411
-0.326280 -0.336323 0.478020
0.009603 -0.136723 -0.843056
0.196260 -0.295884 -0.383380
0.041916 -0.029951 0.619360
-0.090196 -0.071224 0.203420
0.210969 -0.051011 -0.799623
-0.023732 0.001912 -0.932009
-0.056472 -0.261528 0.040865
-0.002188 -0.019611 -0.984224
-0.046983 0.076564 0.705197
-0.082283 -0.021900 0.198996
-0.049284 0.080347 -0.605029
-0.068657 0.030483 0.510732
0.307076 -0.034499 -0.092213
-0.010493 0.042379 0.489649
0.025015 0.356521 0.143645
-0.084282 0.020498 0.121268
0.277233 0.144415 -0.427330
-0.028978 -0.198015 0.549993
-0.064124 0.062032 0.730554
-0.083294 -0.050528 -0.663290
-0.041445 -0.004598 0.542631
-0.067462 0.016568 -0.281653
-0.002544 0.280044 -0.588745
-0.039809 0.019177 0.677373
0.024809 0.130765 0.779390
0.248793 -0.197301 0.188494
0.030632 -0.060818 0.705882
0.003372 0.037837 0.595940
0.234947 -0.203261 0.205624
0.179771 0.105365 -0.363200
-0.242761 -0.224878 -0.592316
-0.344452 -0.365390 0.447078
-0.211728 -0.194380 -0.592170
-0.116203 -0.048241 0.324514
0.110086 -0.043530 0.615789
-0.074965 0.055577 0.687175
-0.011793 0.034821 0.593066
-0.056274 -0.024766 0.185189
-0.252813 -0.229647 -0.611291
-0.003632 0.201843 -0.558140
-0.138357 -0.362796 0.104093
0.336465 -0.042392 -0.129802
0.142392 -0.009849 -0.770592
-0.026952 0.160857 0.829493
-0.015817 -0.023913 -0.960722
-0.405324 -0.340696 0.415568
-0.074464 -0.013736 -0.092621
-0.057174 0.066488 0.683543
0.335033 0.241070 0.398047
-0.075847 0.003469 0.291592
-0.001829 0.371856 0.811265
0.186004 -0.024054 -0.534880
0.203065 -0.277898 -0.387716
-0.049820 -0.005332 -0.649462
-0.080226 -0.046423 -0.668197
-0.026390 0.164960 0.805811
-0.084713 -0.010712 -0.001902
-0.090069 0.210209 -0.157400
-0.030812 0.084038 0.705045
0.014649 -0.160690 0.550589
0.041507 0.104203 -0.837630
-0.302940 0.195313 -0.485871
-0.055340 -0.115459 0.550714
0.015250 -0.126393 -0.848088
-0.084939 -0.004177 0.013803
0.105468 -0.188960 -0.328761
0.170326 0.201653 0.529978
0.097607 -0.187213 -0.325084
-0.188602 0.331583 -0.219946
-0.177171 -0.161382 -0.586115
-0.071701 0.011741 0.191756
-0.088017 0.002706 -0.496879
-0.064077 0.129061 0.233306
0.310460 0.181505 -0.495112
-0.153726 -0.062879 0.390915
-0.154389 -0.022001 0.516657
0.158981 0.179748 -0.359918
-0.095061 -0.286186 0.058668
-0.144826 -0.130454 -0.592784
0.010732 -0.150645 -0.842411
-0.126525 -0.098267 -0.606205
-0.049083 0.014526 -0.572176
-0.055053 -0.009313 -0.440620
-0.043366 -0.011988 -0.378518
-0.264226 0.178654 -0.458920
0.276911 -0.228909 0.146519
0.314184 0.228503 0.426711
-0.309818 -0.353923 0.464247
0.079565 -0.261102 -0.280443
-0.055944 -0.005222 -0.206008
-0.141162 -0.414853 0.141134
0.208990 0.147267 0.524282
0.179059 0.244828 0.523219
0.014476 -0.082485 0.217669
-0.155572 -0.077190 0.409541
0.253324 0.282641 0.464948
-0.032741 0.164833 0.828488
0.203667 -0.000019 -0.804341
0.048113 -0.155720 -0.317451
0.146818 0.144278 0.545661
-0.069366 0.006705 0.413740
-0.272788 0.177568 -0.463840
0.190454 -0.272124 -0.373949
-0.076213 0.021494 0.506388
0.004532 -0.146924 0.548451
-0.013966 0.357204 0.821425
-0.068996 -0.003348 -0.004905
0.257638 -0.018794 -0.052584
-0.380420 -0.367304 0.417019
0.016746 0.283853 0.824703
-0.099241 0.106760 0.827673
-0.048195 -0.001913 0.530300
-0.041355 0.102704 -0.578288
-0.283391 -0.216660 0.530236
0.168770 -0.278845 -0.358997
-0.141186 -0.117877 -0.590289
-0.192309 0.121224 -0.409952
0.228561 0.115038 -0.385999
-0.121904 -0.437486 0.129167
-0.047330 0.010596 -0.452987
-0.008314 0.346264 -0.665148
-0.052702 0.188247 0.263273
0.226325 0.179840 -0.406763
0.183018 -0.260286 0.236099
-0.084696 0.260734 -0.210851
-0.030786 0.383403 0.819765
-0.262496 -0.191056 0.521388
0.118880 -0.057541 0.612736
-0.092909 0.000366 0.052263
0.045176 -0.088098 0.715088
0.025948 0.061363 -0.406823
-0.111160 -0.248826 0.071009
-0.271761 -0.182043 0.531220
0.187221 -0.017469 -0.539531
-0.329134 -0.245445 0.522200
-0.059834 0.045876 0.182353
0.032360 -0.001560 -0.839330
-0.020134 0.357967 0.206728
-0.174893 0.324712 -0.213062
-0.064730 0.280722 0.265207
0.251596 -0.043512 -0.599074
-0.308139 -0.236262 0.526876
0.029876 0.324012 0.185641
-0.027200 -0.001557 -0.109691
-0.162191 0.055925 -0.411755
0.142759 -0.291599 -0.349715
-0.048697 0.300011 0.850564
-0.082519 0.201537 0.873133
0.234153 0.213306 -0.427547
0.033762 0.233210 0.799819
0.033428 0.195833 -0.879146
0.146627 0.132881 0.545211
-0.283672 -0.341271 0.483280
0.258663 -0.089740 -0.052967
0.293684 -0.028890 -0.079867
0.243881 0.164856 -0.411793
0.320183 -0.238589 0.012317
0.227162 -0.292986 0.183170
0.224021 -0.211839 0.214011
-0.106708 -0.043401 0.485948
-0.241443 -0.241777 -0.595705
0.013689 0.024374 0.595274
0.016802 -0.005123 0.684317
-0.009807 0.184790 0.808451
0.180877 -0.314652 -0.374170
0.048372 0.037559 0.616975
-0.310299 -0.243585 0.522459
-0.054071 -0.002504 -0.741611
0.151776 -0.060632 0.586904
-0.022032 0.005369 -0.923668
-0.069657 -0.016417 0.164907
0.141770 0.135536 -0.353150
-0.250642 -0.256998 0.526489
0.185548 0.177911 -0.379709
-0.048630 0.000750 -0.770999
-0.016092 -0.061762 0.212266
0.090110 -0.316053 -0.312878
0.041327 0.079478 0.516124
-0.057160 0.082821 0.741957
-0.085532 -0.053992 -0.671393
0.289670 0.219619 -0.493027
-0.088928 -0.053026 -0.027413
-0.110957 -0.232492 0.072739
-0.159950 0.341410 -0.234980
-0.094746 -0.215442 0.065353
-0.102659 -0.202375 0.071834
0.044689 0.166106 -0.852382
-0.009916 0.381809 0.163411
0.218701 -0.101875 0.516275
0.324110 -0.058284 -0.107080
-0.122341 -0.045413 0.364509
-0.310378 0.212486 -0.478177
-0.092103 -0.061815 0.497022
-0.037591 -0.243949 0.564946
-0.049348 0.001116 -0.473898
0.068822 0.012132 -0.801563
-0.066765 0.012936 0.419851
-0.145197 -0.404905 0.135219
-0.141852 -0.374321 0.120164
0.022377 0.298549 -0.621412
-0.084774 0.029393 0.122263
-0.021604 0.075115 -0.849086
-0.034556 -0.107116 -0.822284
-0.117739 0.120454 -0.185355
0.259421 0.202641 0.493617
-0.133828 -0.027946 0.489276
-0.026913 0.031809 -0.467061
-0.077103 0.033941 0.581912
-0.082901 -0.024137 0.191337
0.315816 0.197551 0.434110
-0.217178 0.341087 -0.231400
-0.140847 -0.061115 0.419127
-0.018662 0.427468 0.062469
0.226974 -0.312782 -0.412073
0.189361 -0.071519 0.552180
-0.105501 0.098998 -0.201562
-0.071268 0.003446 0.298712
-0.033687 0.434028 0.096243
-0.022962 0.192868 0.821416
0.033010 -0.030112 -0.552440
-0.124596 -0.069034 0.483049
-0.050398 -0.010843 -0.740460
-0.059964 0.003441 -0.487736
0.272541 0.008757 -0.082617
-0.035717 -0.164310 -0.805706
-0.374606 -0.355449 0.428792
-0.352884 -0.357530 0.447845
0.000689 0.180742 0.799041
0.178317 -0.009439 -0.524916
-0.129136 -0.036917 0.484349
0.099590 -0.240989 -0.317629
-0.045686 0.002216 -0.651837
0.031412 0.276488 0.217391
0.221434 0.088056 -0.379414
-0.041682 0.210904 0.268301
-0.034345 -0.076458 -0.826979
0.016101 -0.107197 -0.335406
-0.050242 0.001267 -0.440626
0.028452 -0.238503 0.519332
-0.110338 -0.427369 0.111735
-0.346045 -0.278592 0.501630
0.015453 0.330349 0.194939
-0.173850 -0.172990 -0.592774
0.171387 -0.375506 -0.384985
0.174192 -0.240341 -0.362521
-0.075956 -0.035093 -0.709788
-0.090460 -0.057193 -0.027033
-0.229476 -0.200564 0.526556
0.297951 0.282265 0.407259
-0.104544 -0.180604 0.072266
0.126449 0.127069 0.545419
-0.083563 -0.026646 0.198123
-0.022549 -0.037067 -0.945522
-0.075346 -0.040216 -0.032178
0.181158 -0.385912 -0.390437
0.059186 -0.007787 -0.052748
-0.163369 0.077017 -0.409739
0.045564 0.154321 0.775981
-0.154793 -0.070906 0.414053
0.016558 -0.113637 -0.328767
-0.263269 -0.332950 0.501497
-0.006597 -0.040834 0.703880
-0.051921 0.291026 -0.569501
-0.073108 0.380279 0.209816
-0.079447 -0.004416 -0.104706
-0.048088 -0.002272 -0.547195
-0.075908 -0.022961 0.174504
-0.048597 -0.012353 -0.373662
0.241830 -0.109033 -0.550269
0.113759 -0.240731 -0.325469
0.242951 0.172242 -0.415467
0.187881 0.018674 -0.792274
-0.073782 -0.007297 -0.055193
0.237201 -0.214396 0.203461
0.316507 0.194559 0.430497
-0.074244 0.004509 -0.218137
-0.092022 -0.019425 0.180603
-0.348092 -0.211876 0.529742
0.230275 -0.025238 -0.039609
-0.247083 0.147165 -0.429036
0.246715 0.001650 -0.062167
0.031307 0.135482 -0.836112
-0.029694 -0.006294 -0.821746
0.262239 0.214056 0.487296
-0.357703 -0.325719 0.471058
-0.086456 -0.036334 0.504512
-0.062667 -0.212438 0.565815
0.009193 0.043079 0.600598
-0.069494 -0.005877 0.184905
0.185638 0.260981 0.511395
-0.092566 -0.223061 0.063497
0.041281 -0.091368 0.229128
-0.072034 -0.000181 0.037424
-0.089378 -0.355404 0.062376
0.314650 0.274390 0.394345
-0.060087 0.010838 -0.453932
-0.409948 -0.326170 0.434277
-0.055836 0.027063 0.249394
-0.082591 0.352586 0.237940
-0.120660 -0.055202 0.416035
-0.228688 -0.171003 -0.577507
-0.118474 0.105322 -0.185693
0.254541 -0.026515 -0.051151
0.025324 0.112273 0.723554
-0.030086 0.006592 0.580800
-0.050384 0.271876 0.262922
-0.068361 -0.004501 -0.253100
-0.042965 0.351918 0.836920
-0.080159 0.003644 0.185752
-0.016128 -0.119119 -0.835775
0.142179 0.132733 0.543478
0.224864 -0.044214 -0.565185
-0.273503 -0.297072 0.514729
0.032566 0.232890 -0.568422
-0.051376 0.187371 0.837131
0.048759 -0.075904 0.703975
0.051090 -0.027252 0.612996
0.203330 -0.256132 -0.387115
-0.039195 -0.241035 0.036011
0.274317 0.164853 -0.436913
-0.074601 0.033256 0.558819
-0.102864 -0.016699 0.311815
-0.062011 -0.005078 -0.462105
-0.044744 -0.309337 0.037164
0.186826 -0.036477 -0.787376
0.120526 -0.147362 0.240922
0.298197 -0.244246 0.095740
0.246242 -0.050471 -0.042031
-0.109408 0.253737 -0.187520
-0.269766 0.141326 -0.421789
-0.081370 0.207292 0.868647
-0.042473 0.422431 0.114487
-0.037760 0.300128 0.847031
0.040975 0.194510 -0.864243
0.144472 -0.012216 -0.774317
-0.024222 -0.012541 -0.984538
0.138492 0.135908 0.547938
-0.121355 -0.105100 -0.612874
0.001531 0.362908 0.812056
-0.132644 -0.332631 0.095511
0.223710 0.031168 -0.070131
-0.062661 0.163079 0.233645
0.002652 0.243852 -0.567220
-0.062535 0.056824 0.655767
-0.045203 0.124245 0.794489
-0.032203 0.159289 -0.570195
0.028166 0.359071 0.135609
-0.020210 0.047106 -0.849022
0.012946 -0.137720 -0.844242
0.179763 -0.022319 -0.788761
0.244374 -0.150248 0.183661
0.237031 -0.002276 -0.056262
-0.341061 -0.279188 0.507103
0.023354 0.301798 -0.631834
-0.119963 0.324922 -0.238238
-0.057357 -0.147925 0.559988
-0.096263 0.009844 -0.474245
0.108502 0.016036 -0.781571
0.272824 0.214747 0.478963
-0.128194 -0.290743 0.083709
-0.117727 -0.037808 0.454919
-0.067461 0.014343 0.226203
-0.157640 0.262524 -0.177029
-0.088719 -0.063073 -0.018539
-0.000352 0.051775 0.487891
0.261325 -0.044137 -0.611559
-0.055469 -0.129563 0.556878
0.242090 0.231866 0.494522
-0.042616 0.012197 -0.690382
-0.161375 0.067352 -0.418627
0.207794 -0.377736 -0.418103
-0.021688 -0.003928 0.572586
-0.117952 -0.026908 0.281574
-0.022476 0.005651 0.571483
0.170894 -0.200260 -0.363593
-0.035371 -0.038558 -0.365605
0.034790 0.282784 0.208894
-0.057575 0.025683 0.668908
-0.078788 -0.177627 0.560921
-0.240132 -0.193230 0.524443
0.056071 -0.166368 -0.315376
-0.148055 -0.266858 0.108164
0.017813 -0.111912 -0.853068
0.172645 -0.222575 0.244003
0.293250 -0.299363 0.061950
-0.271778 0.128551 -0.411863
-0.075986 0.155325 0.839867
0.142195 -0.221704 -0.342508
-0.005569 0.393429 0.125642
0.140254 -0.165613 0.253106
-0.039964 -0.171176 0.553957
-0.082281 -0.025967 0.183951
-0.042206 0.110643 -0.586142
0.190744 -0.092861 0.551341
0.240160 0.270729 0.480141
-0.106391 0.208659 -0.160675
-0.030303 0.232027 0.263174
-0.017934 0.324861 0.229195
0.306074 -0.265828 0.032872
0.088139 -0.222875 -0.307007
-0.042823 0.263392 0.847409
-0.132120 -0.390699 0.107153
0.213652 -0.260685 0.204143
-0.173960 0.066419 -0.421768
0.250034 0.182167 -0.427080
-0.073665 -0.011106 -0.096893
-0.018651 -0.049819 -0.873425
-0.023390 -0.018193 -0.838384
-0.036862 0.006639 0.554126
0.049543 0.346903 0.139729
-0.029285 -0.018601 -0.580716
0.217731 -0.206114 0.216651
-0.009171 -0.066709 -0.361251
-0.015590 -0.062390 -0.360039
0.206935 0.237609 -0.421961
0.220988 0.178121 -0.405110
0.020302 -0.205262 0.536849
0.157743 -0.023133 0.576213
-0.318777 0.200192 -0.501659
0.088676 -0.009536 -0.031333
0.003692 0.308265 0.222803
-0.057024 -0.006565 -0.410798
-0.087108 -0.323101 0.051862
-0.003385 0.005797 -0.854751
-0.079194 -0.023335 0.173216
0.059810 -0.038162 0.610236
-0.146436 -0.167504 -0.589290
0.017441 0.123544 0.778068
0.105879 -0.065596 0.617876
0.030283 0.284840 -0.621017
0.267418 -0.230222 0.167491
-0.370597 -0.363253 0.432544
-0.087735 -0.279854 0.055489
0.009597 0.389403 0.109362
0.237348 0.015914 -0.828121
-0.104213 -0.005692 0.235975
-0.018033 -0.017238 -0.974277
0.315190 0.263282 0.397751
0.043491 -0.003670 -0.058036
0.021694 0.310468 0.206279
0.296794 -0.194778 0.118192
-0.150942 -0.184279 -0.590255
-0.004906 -0.183392 0.546919
-0.275262 0.102608 -0.399160
-0.246850 -0.260445 0.524066
-0.061161 0.009708 -0.457497
-0.092803 -0.064937 -0.647872
-0.121475 0.351155 -0.253546
-0.024925 0.010059 -0.889692
0.318424 -0.089747 -0.103207
0.150698 -0.035898 -0.515372
0.258120 0.003994 -0.076574
-0.134056 -0.299967 0.086469
0.204981 -0.089411 -0.522317
0.237329 -0.092961 -0.553046
-0.054082 0.011827 -0.332930
-0.341553 -0.280036 0.507777
-0.174649 0.058934 -0.402469
-0.032867 0.007920 0.571971
-0.381487 -0.352378 0.430004
0.253742 -0.029466 -0.049774
0.272537 -0.222912 0.159704
-0.073954 0.010043 -0.234759
-0.140777 -0.423071 0.145015
-0.120577 -0.019727 0.277681
0.154709 0.183339 -0.355671
-0.380250 -0.353218 0.430237
-0.135313 -0.045988 0.463841
-0.130431 -0.032030 0.493578
0.082583 -0.034138 0.626781
0.229275 0.121090 -0.387074
-0.077841 0.201034 0.863359
-0.018316 0.358878 0.204354
-0.031789 0.099217 0.760812
0.238017 0.198586 0.509651
-0.143664 0.040741 -0.423307
0.046933 0.227944 0.796084
0.244061 -0.203791 0.196459
-0.039456 -0.168492 0.554469
-0.040983 0.008700 -0.703883
-0.077791 0.081812 0.174784
0.263888 0.139711 0.495502
0.235349 -0.249859 0.190443
0.233897 -0.248871 0.191917
-0.082294 0.110156 0.812777
-0.116919 -0.112404 0.539800
0.333796 0.228490 0.408281
0.199968 -0.281611 0.209486
0.024560 -0.002408 -0.845058
-0.081871 0.009637 -0.505612
-0.105221 -0.402701 0.093617
-0.201888 0.284232 -0.187268
-0.095872 0.344980 0.242101
0.185171 0.085094 -0.358880
-0.373767 -0.333036 0.447440
0.001372 0.046299 0.603673
0.030700 0.196427 -0.859487
-0.019280 0.119964 0.779709
-0.088916 0.053870 0.166424
0.201125 0.201805 -0.399577
0.019667 0.157931 0.786074
-0.070770 0.010194 -0.163845
-0.087843 -0.055895 0.204174
-0.380823 -0.247905 0.502259
-0.054915 -0.007686 -0.370401
-0.096923 -0.067571 0.193362
0.267483 -0.082093 -0.624665
0.168502 0.174165 -0.366867
0.096635 -0.222377 -0.315712
0.018958 0.273718 0.238503
0.193211 -0.277673 -0.375505
-0.069864 0.133320 0.236319
0.145601 -0.017636 -0.773391
0.206997 -0.129642 0.546652
0.277519 -0.188682 0.147410
-0.026581 0.339222 0.227868
-0.156022 0.307055 -0.206095
-0.052604 0.005011 0.710445
0.016994 0.287683 0.223955
0.179690 -0.003879 -0.511065
-0.027615 -0.120586 -0.829156
0.245329 -0.030817 -0.593964
-0.100806 -0.145088 0.058638
0.263269 0.200775 -0.450264
-0.127027 -0.032781 0.491093
-0.057225 0.273711 -0.554104
0.033341 -0.231987 0.523004
-0.128773 -0.318719 0.082562
-0.050571 0.411815 0.147049
-0.092390 -0.063444 -0.001062
-0.181714 0.318993 -0.209447
0.162197 -0.056394 0.577959
-0.228843 0.099589 -0.401927
-0.073494 -0.002063 0.352418
-0.100844 0.012285 -0.466374
-0.129483 0.239243 -0.169529
0.196869 -0.047495 -0.534989
0.234485 0.143832 0.508918
-0.070918 0.063158 0.702796
0.089121 -0.236526 -0.301961
-0.102268 -0.271042 0.058819
0.002566 -0.001804 -0.857146
-0.017384 -0.017891 -0.872772
-0.076818 -0.031554 0.164524
0.224032 -0.195159 0.211668
-0.137808 -0.260416 0.101455
0.147530 -0.074312 0.592816
0.004485 -0.014307 -0.566117
-0.069318 -0.000741 -0.002273
-0.114146 -0.413595 0.109378
-0.128051 -0.395425 0.105688
-0.015684 0.007632 0.675015
-0.072818 0.009119 0.290285
-0.073764 -0.002905 0.226969
-0.082028 0.018285 -0.233168
-0.152694 -0.070804 0.385714
-0.301984 0.181448 -0.468154
-0.029233 0.005592 -0.722791
-0.026207 0.294454 0.842873
0.001877 -0.135331 0.549361
-0.109981 0.024546 -0.467075
-0.064861 0.191975 0.848514
0.129547 -0.010378 0.591948
-0.070480 0.011157 -0.180617
-0.008303 0.271868 -0.579903
-0.058552 0.000223 -0.666917
0.227963 -0.351415 -0.429653
-0.133934 -0.363604 0.103560
-0.011936 -0.002368 -0.915546
0.205153 -0.077941 -0.524096
0.052297 0.070619 0.621141
-0.355704 -0.304561 0.490122
-0.073771 0.027880 0.545610
-0.039506 0.014383 0.589858
-0.142031 -0.032165 0.485058
-0.050577 -0.003922 0.515735
-0.023150 0.339949 -0.624825
-0.400830 -0.255308 0.500258
0.306878 -0.245735 0.058995
-0.011974 0.393713 0.135844
0.293476 -0.205873 0.121212
-0.073528 -0.011279 0.090791
-0.071439 -0.007189 -0.089892
-0.156632 -0.147619 -0.588139
0.198238 -0.044517 -0.021308
0.277557 0.188102 -0.462268
0.194947 -0.395158 -0.405639
0.161570 0.212646 0.536283
-0.060844 0.324259 0.247452
-0.069903 0.161514 0.866251
-0.188905 0.127934 -0.412192
0.050962 0.001651 -0.823539
-0.075897 -0.002473 0.119539
0.024098 0.039008 0.604476
-0.004260 0.227316 0.821359
0.097613 0.000663 -0.780967
-0.059139 0.056599 0.656186
-0.195510 0.184041 -0.446068
0.022403 0.370922 0.141107
-0.086378 -0.001771 0.035362
-0.116431 -0.124111 -0.602690
0.164530 0.021930 -0.777861
-0.109287 0.262868 -0.193846
-0.125381 -0.047711 0.421568
-0.070360 -0.360007 0.057371
-0.102881 -0.015511 0.237947
0.178251 -0.250419 -0.365286
0.194885 -0.248872 -0.380585
-0.068601 0.040604 0.562504
-0.003329 0.140537 -0.825803
-0.039033 -0.176368 -0.798707
0.017699 -0.201677 0.535064
-0.073684 0.000375 0.064627
-0.083235 0.011807 0.114269
0.174071 -0.052553 -0.519975
-0.068770 0.010297 -0.311752
0.224888 -0.281632 0.191120
0.116233 -0.192094 -0.334254
0.136812 -0.225473 -0.341386
-0.057437 -0.004283 -0.379281
-0.194894 -0.134813 0.483176
0.038840 0.171795 -0.854912
-0.043944 -0.023568 -0.386024
0.253753 -0.023361 -0.052466
-0.027292 0.294141 0.254598
-0.169714 0.026673 0.506741
0.198338 -0.234494 0.221535
-0.094598 0.003725 0.151880
0.237269 -0.027843 -0.583423
-0.023642 -0.036863 -0.901424
0.107675 0.105746 0.531189
-0.154980 -0.033580 0.465069
-0.038724 0.007499 0.609969
-0.019776 0.327520 -0.619022
-0.042702 -0.308713 0.037085
-0.073366 0.161541 0.840198
-0.016956 -0.085062 -0.855453
0.030227 -0.087406 0.725554
0.283385 -0.162937 0.134293
-0.123275 0.294904 -0.208906
0.266998 0.278378 0.449639
-0.056118 0.073361 0.707997
0.145624 -0.036618 0.588643
-0.158863 0.026193 0.502262
0.293538 -0.182405 0.120678
-0.051600 -0.286853 0.041250
0.012050 -0.268816 0.526206
0.062332 0.077648 -0.384806
0.010595 -0.153986 0.542335
0.004415 0.220286 0.814261
0.221499 0.256392 0.493346
-0.078802 -0.000034 0.228004
-0.075361 -0.009931 -0.101076
-0.248867 0.190114 -0.466595
0.028971 -0.058718 0.705086
-0.149411 0.274827 -0.185221
-0.088010 -0.013884 0.150961
-0.099514 -0.167459 0.063751
-0.115471 -0.300536 0.066071
-0.169402 -0.142992 -0.590057
0.000837 -0.096804 -0.851826
-0.119554 -0.156999 0.551999
-0.121609 -0.377221 0.088537
-0.041209 0.002652 -0.715526
0.256678 0.132107 0.505803
-0.087148 -0.041948 -0.029919
0.189531 0.256999 0.519003
0.007503 -0.075799 0.228981
-0.234464 -0.252770 0.530243
-0.163831 0.021231 0.501727
-0.199164 -0.128652 0.472596
0.176740 -0.063433 0.564900
-0.038176 -0.013231 -0.819036
-0.204039 -0.165372 -0.584663
-0.143929 -0.455821 0.144049
0.169777 -0.221402 -0.364278
-0.111561 -0.032616 0.467282
0.265015 -0.259026 0.153812
-0.007427 0.299166 -0.602479
-0.045279 0.250748 0.267991
0.215590 -0.330820 -0.399954
0.018234 -0.079808 0.728046
-0.114580 0.194248 -0.183033
-0.415221 -0.357399 0.399817
-0.308977 0.175714 -0.451472
-0.108697 -0.128249 0.548486
-0.023259 0.368919 0.195638
-0.026937 0.432794 0.070779
0.257433 -0.068003 -0.605180
-0.047350 -0.002379 -0.531327
-0.096082 -0.103514 0.024901
-0.199472 -0.136136 -0.577695
-0.245137 0.185734 -0.459729
-0.051374 0.001899 -0.139001
0.036410 0.325549 0.176881
-0.070659 -0.001045 0.327958
-0.311699 -0.287288 0.520027
0.094683 -0.274570 -0.312403
0.250725 -0.029760 -0.600957
-0.125036 -0.029599 0.501542
0.224317 -0.021860 -0.815288
-0.051705 -0.011954 -0.467672
-0.073321 0.007150 -0.210119
-0.001005 0.046869 0.605220
-0.053029 0.175986 0.257400
-0.251802 -0.180370 0.524563
-0.021722 0.315372 0.837733
-0.014156 -0.259318 0.540156
-0.017169 0.087775 0.698673
-0.003437 0.223375 0.815095
0.275864 -0.235555 0.153013
0.195350 -0.277816 -0.377576
-0.126607 -0.236834 0.097453
0.233085 -0.016201 -0.577984
-0.115971 -0.309151 0.069375
-0.139799 -0.390599 0.135556
-0.055895 0.131409 0.803925
-0.125369 -0.349160 0.087110
-0.104571 -0.264960 0.063240
-0.085167 -0.018298 0.165274
0.015958 0.302867 -0.620200
-0.333943 -0.299269 0.505870
0.000687 0.172994 0.813697
0.025410 -0.014545 0.598764
0.174042 -0.248875 0.236106
-0.276648 0.099154 -0.395137
0.182564 -0.366911 -0.387706
-0.002549 0.388561 0.134886
-0.079031 -0.002215 0.413701
-0.288846 -0.273373 0.525801
-0.000433 -0.071026 0.210031
0.047535 0.125933 -0.842138
-0.068083 0.118358 0.218043
-0.120210 -0.040929 0.297824
-0.084281 0.225605 0.867009
0.154609 0.132860 0.545860
0.030083 -0.239589 0.520822
0.201035 -0.208092 0.226351
-0.042345 0.022157 -0.488952
0.257165 -0.312809 0.129848
-0.002739 0.054925 0.499309
0.096826 -0.199733 -0.322903
-0.110657 -0.022936 0.268068
-0.040672 0.007993 -0.650810
-0.076433 -0.390970 0.065120
-0.183938 0.250196 -0.161830
-0.116868 0.333382 -0.255679
-0.035862 0.207208 0.833348
-0.005667 0.003103 -0.961902
0.225076 -0.378646 -0.434570
-0.051497 0.298058 0.878350
-0.073466 0.006518 0.325113
-0.074997 0.107156 0.803051
-0.104927 -0.414097 0.099363
0.119499 -0.229842 -0.328442
-0.081627 -0.006411 -0.088262
-0.168072 -0.170635 -0.588667
0.197095 0.191776 -0.391237
-0.151404 -0.199407 -0.590713
-0.038914 0.059424 -0.612373
-0.005106 0.293589 0.831454
-0.360239 -0.257839 0.507930
-0.061048 -0.108973 0.542703
-0.126233 -0.393158 0.106242
-0.249918 0.121958 -0.413386
0.001182 -0.007778 0.613838
0.292529 -0.203031 0.123163
-0.118220 -0.245021 0.100221
0.193283 0.000041 -0.025992
0.249424 -0.223061 0.189449
-0.013748 0.078983 0.682123
0.080380 -0.001471 -0.797968
-0.018442 -0.146119 0.542890
-0.023377 -0.000525 -0.946197
-0.080504 0.190968 0.866441
-0.085438 0.014526 0.113722
-0.040218 0.025781 -0.473094
-0.028260 0.306513 0.842247
-0.051268 0.014993 -0.454152
-0.121390 -0.044369 0.332864
-0.033411 0.227545 0.260707
0.010459 -0.263807 0.525307
0.308328 -0.245045 0.050684
0.238845 -0.156859 0.189081
0.055826 -0.092265 0.709290
-0.074418 0.000840 -0.163346
0.229359 0.145368 -0.393367
-0.312442 -0.321529 0.495013
0.172172 -0.006759 -0.511856
-0.075489 0.009011 -0.518065
-0.193053 0.361466 -0.251626
-0.069086 0.010985 -0.301170
-0.382060 -0.325331 0.446697
0.183510 0.112070 -0.358855
-0.338253 -0.258069 0.514905
-0.288196 -0.229522 0.530170
0.229079 -0.089991 -0.542579
-0.126749 -0.051258 0.453641
0.025595 -0.073854 0.717302
0.236962 -0.097890 -0.032288
0.229126 -0.019645 -0.819581
0.213794 -0.110580 0.522321
-0.051261 0.000915 -0.442592
-0.273924 0.199407 -0.484261
0.025409 0.222704 0.803794
0.092869 0.089962 -0.380549
0.200935 -0.084138 -0.518593
-0.012308 0.033216 0.591474
-0.289425 0.112657 -0.401886
-0.344646 0.208645 -0.500074
0.060203 -0.103141 0.233859
0.247115 0.136698 -0.401002
0.209198 -0.090202 -0.020115
-0.058957 0.004795 -0.585457
-0.137202 -0.174726 -0.590390
-0.244357 -0.212248 0.528409
-0.105291 -0.079484 -0.634507
-0.003810 0.240437 0.241029
0.053485 0.078446 -0.383767
-0.209097 0.030308 0.516045
-0.077148 0.039551 0.619470
-0.083206 -0.351653 0.055773
-0.074384 -0.005347 0.219308
-0.140946 -0.020504 0.490093
-0.019299 -0.152323 -0.822970
-0.047020 0.390140 0.181320
0.115260 -0.287446 -0.330876
-0.202900 0.323698 -0.213739
-0.061843 -0.242973 0.050739
-0.102059 -0.022084 0.185747
0.165623 -0.300100 -0.362479
-0.038995 0.008490 -0.898772
-0.069321 0.009063 -0.343616
0.024601 -0.180440 0.532884
-0.142269 -0.102730 -0.590430
-0.070632 -0.106614 0.546843
0.232464 -0.205694 0.203913
0.178518 -0.057533 0.562229
-0.149161 -0.108660 -0.586623
-0.120386 -0.416310 0.116209
-0.057684 0.189250 0.849434
-0.039510 -0.001075 -0.589898
-0.081049 -0.020931 -0.050674
0.238641 0.193174 0.510161
0.000965 0.304791 0.227417
-0.001249 0.274479 -0.589984
-0.130642 -0.119170 -0.595134
-0.022929 0.306240 -0.596693
0.000259 0.102874 -0.822534
0.211466 -0.251427 -0.397599
0.003802 0.326859 -0.636818
0.015384 -0.017379 0.684701
-0.002014 0.196161 -0.838816
0.225542 -0.301860 -0.416052
-0.206547 0.316698 -0.209153
0.138218 -0.021882 -0.021839
-0.317419 -0.352624 0.462676
-0.285726 -0.231617 0.530614
0.205940 -0.035023 -0.032249
-0.064681 0.035027 0.637078
-0.142292 -0.310214 0.101627
-0.046791 -0.002729 -0.571188
-0.187224 -0.108212 0.450528
-0.388026 -0.340590 0.431189
-0.016463 0.001972 0.651602
-0.009557 -0.071530 -0.869495
0.204596 -0.044841 -0.797886
-0.141745 -0.027334 0.483331
-0.281289 -0.195346 0.525522
-0.226749 0.370294 -0.273996
-0.089391 -0.002807 0.091808
0.181491 -0.311115 -0.374488
0.055086 -0.032604 0.611701
0.035108 -0.091458 0.231842
0.228292 0.004348 -0.055875
-0.211596 -0.142457 -0.581055
0.250459 -0.276899 0.160922
-0.028091 -0.104870 -0.833725
-0.282985 0.180039 -0.463264
0.118553 -0.035416 -0.517380
0.184502 -0.113407 0.557590
-0.020655 0.040075 0.471606
-0.073699 -0.025090 0.176185
0.250426 -0.074349 -0.047873
-0.073988 -0.279196 0.048163
0.104374 0.094248 -0.365921
0.133164 0.012118 -0.775903
0.295225 -0.250225 0.094608
-0.062925 -0.006029 -0.169125
-0.394317 -0.267299 0.492822
0.179718 -0.037398 -0.016919
0.016401 0.056424 -0.414477
0.243508 -0.107380 -0.040295
0.292722 0.216037 0.458689
-0.046223 0.006628 -0.533935
-0.318631 0.142633 -0.417358
0.072951 0.104955 0.536369
-0.106734 0.213755 -0.164203
0.278064 0.155118 0.481263
-0.061547 -0.170421 0.556287
0.232042 -0.376641 -0.438698
-0.117589 0.023547 -0.461824
-0.012501 0.160659 -0.825586
-0.014104 -0.015387 -0.879427
-0.052025 -0.122973 -0.794428
-0.326322 0.198814 -0.497735
0.187426 0.187807 -0.384221
0.207433 0.025813 -0.046133
0.029092 0.259311 0.807551
-0.035460 0.007632 -0.797266
0.211910 -0.016278 -0.808348
0.243812 -0.198347 0.194983
-0.080768 -0.174559 0.058777
0.198139 -0.297513 -0.384262
-0.170176 0.066624 -0.409162
-0.236332 0.334525 -0.221248
-0.171973 0.356239 -0.250510
-0.010173 -0.030980 0.700812
-0.034253 0.019516 0.629238
-0.211774 0.372015 -0.282148
0.124884 -0.196019 -0.328578
-0.186131 -0.214164 -0.589998
-0.061319 0.005720 0.292635
0.215894 -0.028871 -0.030184
-0.077931 0.035250 0.542232
-0.145408 0.286694 -0.192846
-0.118257 -0.309726 0.067802
0.319861 0.206537 -0.524242
0.085062 -0.128985 0.249790
0.252621 0.240877 -0.458193
-0.036285 -0.132059 -0.814654
-0.017452 0.033932 -0.449516
0.174612 0.003305 -0.521260
0.126108 0.128801 -0.356566
-0.050086 -0.011164 0.722911
0.134709 -0.028312 0.594694
-0.002700 -0.008955 0.655915
0.067149 -0.171386 -0.320589
0.194090 -0.024533 -0.023153
-0.041489 0.141182 0.796937
-0.084173 -0.014348 0.146203
0.003316 0.215370 0.812333
0.242195 -0.055618 -0.584424
0.090694 -0.009592 -0.029658
0.092605 0.105411 0.541348
0.323425 0.276211 0.351739
0.188465 0.012237 -0.018338
0.078093 -0.273379 -0.285648
0.316189 -0.022251 -0.104966
0.245753 0.000173 -0.835392
0.325982 -0.024284 -0.118812
-0.081282 0.002927 -0.126103
-0.074919 0.004735 -0.212377
-0.108183 -0.288710 0.059721
0.018859 0.109106 -0.822676
0.228207 -0.147339 0.196172
-0.074355 0.131028 0.821671
0.334820 -0.066835 -0.118340
-0.049044 0.213786 0.256405
-0.057747 0.262340 -0.549120
-0.066494 -0.005885 -0.607658
-0.022917 0.073347 0.670589
0.034173 -0.023966 -0.543774
-0.290179 -0.322491 0.498954
0.056070 0.079667 -0.382943
-0.014733 -0.005924 -0.895830
0.280764 -0.090186 -0.064650
-0.227785 -0.162868 0.497073
0.025707 -0.127181 -0.326992
-0.055697 0.015938 -0.696672
-0.075845 0.007705 -0.113590
-0.046935 0.002314 -0.661223
0.015434 0.163694 0.793744
0.239075 0.174815 -0.418000
-0.084165 0.117062 0.829867
0.003071 0.031409 -0.442293
0.248129 0.175967 0.503482
-0.018255 -0.018279 -0.886030
-0.107586 -0.131819 -0.589045
-0.222338 0.368487 -0.275678
-0.247366 0.130466 -0.419680
0.211331 0.147916 0.523435
-0.198704 -0.209124 -0.591825
-0.219552 -0.173908 0.511037
0.257546 0.134312 0.508218
-0.045520 0.099621 -0.579115
0.190196 -0.169520 0.233203
0.203449 -0.347827 -0.393876
-0.038317 -0.174427 0.545591
-0.102723 0.238103 -0.185212
-0.044242 -0.016489 -0.393033
-0.393104 -0.385994 0.411248
0.049899 -0.120880 0.708715
-0.046254 -0.004441 -0.707922
-0.223861 0.043492 0.518983
-0.229710 0.043146 0.504231
0.062046 -0.013053 -0.044238
0.218815 -0.139942 0.204562
-0.137831 -0.289581 0.105153
-0.119477 0.027983 -0.457963
-0.071640 0.004966 -0.313709
-0.109146 -0.108596 0.550292
-0.167448 0.302109 -0.200899
0.137639 -0.145143 0.242748
-0.127203 -0.034024 0.314923
0.270582 0.158583 -0.429227
0.026066 0.216248 -0.560813
-0.071517 0.007653 -0.093215
-0.043517 0.014274 -0.740741
-0.090240 -0.101737 0.027675
0.242065 -0.162821 0.187464
0.195186 0.034160 -0.796265
-0.080612 0.006633 -0.018212
-0.058797 0.005928 -0.160447
-0.022310 0.318008 0.241962
0.347703 -0.048332 -0.138320
0.052128 0.141279 -0.848306
-0.123806 0.172964 -0.166839
-0.057011 0.010877 -0.272666
-0.056872 0.000026 -0.698766
-0.134500 -0.052669 0.452368
-0.084429 -0.357414 0.060449
0.120030 -0.022460 -0.023136
0.016362 0.318835 0.204257
-0.058862 0.075295 0.737484
-0.150564 0.024243 0.492288
0.260558 -0.108441 -0.587051
0.328847 -0.031750 -0.125291
-0.134430 0.154896 -0.166440
-0.112925 0.192204 -0.171328
-0.071489 0.338113 0.242661
0.022540 -0.003825 -0.065960
0.048714 0.126785 -0.836537
0.020670 -0.109724 -0.856343
0.164178 -0.211851 -0.358126
-0.140573 0.028115 -0.430542
-0.026774 -0.111380 0.546587
-0.096178 -0.317897 0.057635
0.308079 0.202709 -0.508912
-0.023252 0.419441 0.091804
0.191600 -0.023730 -0.544710
-0.047059 -0.002131 0.524500
0.232183 0.005208 -0.578968
0.278540 -0.228827 0.144038
0.004374 0.052976 0.615077
-0.016172 0.258512 0.252847
0.096869 0.146569 0.545474
0.047051 -0.090350 0.236079
0.218228 0.193756 -0.407225
-0.298490 -0.350701 0.479883
-0.003901 0.306517 -0.611324
0.313208 0.283818 0.385198
-0.003269 0.247336 0.824629
-0.081717 0.016821 0.100778
0.273722 -0.171029 0.153197
-0.053445 0.273204 -0.557548
-0.145576 -0.188344 -0.592760
-0.092813 -0.080344 0.536649
-0.186080 0.321128 -0.211300
-0.020097 0.406148 0.803295
-0.049511 -0.006946 -0.657188
0.144812 0.138240 -0.353438
0.065973 -0.009550 -0.055957
0.177614 -0.317929 -0.369319
0.146576 -0.034926 -0.022585
-0.137979 0.163715 -0.163299
-0.018264 0.246176 0.834570
0.223067 -0.207305 0.214902
0.234197 0.195797 0.512524
-0.167307 -0.189053 -0.590096
0.009789 0.206623 -0.847686
0.264821 0.186784 0.490070
-0.171534 0.035522 0.502543
0.073091 -0.113093 0.239876
-0.011641 -0.077814 -0.855154
-0.115821 0.032792 -0.446587
-0.070464 0.075518 0.183210
-0.140215 0.209106 -0.161785
0.207330 -0.052263 -0.547779
-0.067035 0.011911 -0.323047
-0.241975 -0.193031 0.524620
-0.216273 -0.150136 0.501073
-0.123199 -0.041695 0.352503
-0.325777 0.176400 -0.440833
0.169278 -0.350627 -0.371850
0.134054 -0.248738 -0.340774
-0.112735 -0.088165 -0.616759
-0.034436 -0.032240 -0.368371
-0.405547 -0.294501 0.474428
0.298174 -0.269949 0.069735
0.148895 -0.153799 0.247282
0.212725 -0.287910 -0.392305
-0.035637 0.009830 -0.882731
0.027982 0.269643 0.236313
-0.020394 -0.028028 -0.949062
-0.056986 0.019254 -0.633632
0.012589 0.340378 0.186592
0.029298 0.138403 -0.836569
-0.266746 0.138794 -0.420480
-0.065849 0.014127 -0.327182
0.249960 -0.208547 0.189696
-0.064783 0.181697 0.851989
-0.276143 -0.263266 0.521498
-0.129027 -0.054703 0.426155
-0.041007 -0.000217 -0.596904
-0.037821 -0.114945 -0.817576
0.175938 -0.193378 0.239345
0.221304 0.023577 -0.815187
0.134797 -0.012778 0.589233
-0.078389 0.048059 0.141383
-0.136350 0.342110 -0.243591
0.194052 -0.165667 0.229706
0.228499 0.196529 -0.415831
0.002356 -0.254261 0.531599
-0.051401 -0.013943 0.536450
0.113535 -0.251528 -0.325247
-0.306045 -0.333519 0.487312
-0.050940 -0.261547 0.035221
0.020279 0.298918 -0.619990
-0.018071 0.322945 0.230637
0.195569 0.094303 -0.354976
-0.092915 -0.024874 0.175847
-0.023715 -0.130350 -0.828636
-0.098798 -0.189594 0.061740
-0.070574 -0.002318 0.014104
0.157644 -0.380854 -0.373810
-0.025845 -0.018758 -0.890553
-0.074996 0.212864 0.863295
0.031278 0.230747 -0.566323
-0.336886 -0.277171 0.509018
-0.036669 -0.003891 -0.787652
0.328382 0.281341 0.347160
0.004012 -0.197805 0.537221
-0.122176 -0.033260 0.297979
-0.115857 -0.092910 -0.617463
0.267290 -0.098542 -0.056586
-0.205035 0.326044 -0.215604
0.269576 -0.296491 0.119622
0.020809 0.054444 0.614610
-0.039914 -0.073654 -0.817701
-0.103250 -0.146369 0.053418
-0.169322 -0.134133 -0.581941
-0.091239 0.215162 -0.162813
-0.004797 0.042725 -0.439415
-0.089125 0.273212 -0.217947
-0.024845 0.007055 0.591975
0.223110 0.187864 0.520197
-0.123654 -0.317418 0.074577
0.118352 -0.038905 -0.518692
-0.041795 0.274610 0.846846
0.193792 -0.001251 -0.798420
-0.230129 -0.187017 0.512063
-0.009954 0.170630 0.797471
0.153293 -0.314413 -0.356392
0.316360 -0.051667 -0.100082
0.147989 0.200113 0.545067
-0.050041 0.016147 -0.677998
0.045335 -0.098277 0.237375
-0.057687 -0.003208 -0.172785
-0.081951 -0.000634 -0.112454
0.275862 -0.190863 0.150477
-0.066199 -0.009125 -0.245066
-0.070780 0.021846 -0.315935
-0.150815 0.321818 -0.219609
0.249000 -0.031770 -0.042794
0.201718 0.258049 0.505970
0.197696 -0.261524 -0.380803
-0.351210 -0.278782 0.501176
-0.033029 0.437140 0.058539
-0.139223 -0.376717 0.117323
-0.076623 -0.365251 0.058994
0.008207 0.260515 0.821289
0.268754 -0.183511 0.160426
-0.047210 0.164004 0.822174
0.088512 0.083920 -0.373536
-0.346266 -0.336695 0.470470
0.118944 -0.016165 -0.031589
0.170317 -0.026076 -0.020417
-0.233497 0.316756 -0.204489
-0.035251 0.010050 0.614293
-0.028669 -0.041090 -0.930449
-0.113540 -0.134220 0.553308
-0.110856 -0.088342 -0.617594
0.165673 -0.283663 -0.357469
-0.085026 -0.023132 -0.059418
-0.250737 0.152172 -0.436078
0.006035 0.302818 -0.618715
0.215100 -0.173532 0.216477
-0.371424 -0.227075 0.518846
-0.104649 -0.402051 0.092748
0.187106 -0.006341 -0.027490
-0.059834 0.014792 -0.391378
-0.041205 0.141680 -0.558469
-0.025857 0.179326 0.816954
-0.026380 -0.127303 -0.833127
-0.152465 -0.381459 0.128940
-0.184573 0.306142 -0.203635
0.023891 0.217801 -0.570065
0.185484 -0.363783 -0.388247
0.308093 -0.255935 0.034875
0.049389 -0.023977 -0.543431
0.028192 0.310641 0.201016
-0.010930 0.196705 -0.836474
0.316406 -0.053344 -0.099673
-0.027317 -0.150973 -0.820033
-0.124983 -0.330378 0.083870
0.181506 -0.382977 -0.397551
-0.084891 -0.014190 -0.072644
-0.139059 -0.050783 0.382766
-0.163848 0.327760 -0.217357
0.250633 0.190642 -0.432356
-0.177827 0.057632 -0.400636
-0.019395 -0.034728 -0.953571
0.197887 0.247493 0.511479
-0.018211 0.065153 -0.848982
0.004261 -0.183763 0.539339
0.002394 -0.022683 -0.563869
0.238380 -0.065307 -0.573764
-0.218356 0.059174 -0.390728
0.248494 0.279180 0.462958
0.009260 0.373940 0.144113
-0.291295 0.214220 -0.480277
0.024873 0.099381 0.705371
-0.048886 0.000913 -0.473945
0.315028 0.184952 0.432276
0.152410 -0.007321 -0.777972
0.002000 -0.164358 0.548671
-0.063081 -0.004132 -0.207632
-0.125077 -0.305834 0.075745
-0.081098 -0.032824 0.190418
0.304632 -0.224198 0.085547
0.145060 -0.057711 0.592850
0.276945 0.143568 0.472875
-0.195941 0.295003 -0.193061
-0.033050 -0.084036 -0.836296
-0.078882 0.047129 0.156965
-0.215688 -0.152818 0.494312
-0.069263 0.232024 0.275866
0.060679 -0.094056 0.713348
-0.207379 0.373257 -0.281958
0.251692 0.137394 0.496475
-0.071913 0.393007 0.195115
-0.330963 -0.364512 0.451901
-0.065163 0.036099 0.176843
-0.152189 -0.367058 0.126405
0.012825 0.052130 -0.410001
0.018917 0.262275 0.245676
-0.056133 0.058111 0.717278
-0.400221 -0.308423 0.456231
-0.014820 -0.018039 -0.968826
0.280588 0.256407 0.448853
-0.070785 0.009937 0.221430
-0.044364 -0.104967 -0.805550
-0.152334 0.057719 -0.415879
0.022448 0.305221 0.208177
0.007001 -0.014144 0.599198
0.203542 -0.288617 -0.389882
0.016478 0.205132 -0.852929
-0.076374 0.260002 0.862090
0.176680 0.219763 -0.390452
-0.131436 -0.273440 0.087470
-0.096172 -0.078063 0.001888
0.089859 -0.319745 -0.326677
0.010646 0.389208 0.102637
0.139087 -0.042764 -0.521221
-0.338759 -0.311247 0.497816
-0.056433 0.338258 0.238278
-0.323245 -0.321464 0.493043
0.176631 -0.106082 0.568354
