0.014670 0.237674 -0.099340
-0.386904 -0.004932 0.096527
0.084631 0.368198 0.314798
-0.007270 -0.083859 -0.085431
-0.059461 -0.027403 0.313000
0.356103 -0.066422 -0.719224
0.190924 0.161778 0.440885
-0.106794 -0.138434 0.422591
0.042598 -0.034214 -0.640734
-0.108484 0.176371 -0.510634
-0.034237 0.262668 -0.484957
-0.093082 0.022600 0.357244
0.114318 -0.089523 -0.356435
0.198782 0.197608 0.419996
0.088658 -0.077046 -0.547279
0.026362 -0.053881 -0.795324
0.109526 -0.054109 0.363363
-0.065121 -0.083970 -0.597044
-0.077172 -0.343884 -0.534332
0.028956 0.134027 0.425592
-0.332532 0.089576 0.198547
0.213053 0.170186 0.440190
-0.261221 0.076194 0.244454
0.087830 -0.094849 -0.509091
0.145455 -0.087757 -0.536925
-0.170889 0.032000 0.259626
0.038551 -0.027978 -0.691438
0.095102 0.330074 -0.149242
-0.232159 0.083332 -0.309853
0.059939 0.367117 0.323521
0.140271 -0.079511 0.374716
-0.033358 0.353905 0.348379
0.251655 -0.048045 -0.603936
-0.157651 0.105127 0.291017
0.033049 -0.086144 -0.502377
-0.312677 -0.136112 -0.014380
0.103039 0.140962 -0.669777
-0.263464 0.120405 -0.341675
0.064811 -0.057387 -0.316699
-0.072321 0.276519 -0.530964
0.027404 -0.037924 -0.904887
-0.273913 -0.221665 -0.022973
0.303922 0.094725 -0.548146
-0.058812 0.142803 0.385017
-0.212363 0.118456 0.269987
0.081816 -0.133236 0.346114
-0.150238 -0.143540 -0.611125
0.262337 -0.082255 -0.609722
0.136650 0.123345 0.408108
-0.153203 -0.125726 0.413755
-0.241326 0.167876 0.237264
0.324769 -0.081981 0.245440
0.022580 -0.025901 -0.597013
-0.033178 0.056879 0.129072
0.010008 0.013741 0.436139
0.148425 0.122569 0.419856
0.399131 0.162495 -0.655405
-0.091340 -0.027304 0.267422
0.037036 -0.289310 0.242553
-0.259927 0.038643 -0.340233
-0.083792 0.130096 0.335812
-0.034700 -0.096679 -0.082772
0.102107 0.020850 0.039961
-0.062226 0.043792 0.312825
0.043334 -0.050276 -0.064360
0.139632 0.293391 0.351987
0.040220 -0.452211 0.174334
-0.002820 -0.138278 0.278753
-0.109986 0.012302 -0.804420
-0.008832 0.082641 -0.481461
-0.111487 -0.133570 0.427930
0.172829 0.034602 0.256170
-0.334940 0.008077 0.367125
0.056473 0.063476 -0.665989
-0.052732 -0.088015 0.361455
-0.346864 0.032757 0.328554
-0.020387 0.102848 0.419792
0.123662 0.126757 0.391246
-0.125660 -0.143575 -0.594805
-0.073355 -0.103406 -0.021464
-0.121000 -0.009446 0.420274
0.007271 -0.020167 -0.632621
-0.014828 0.233956 0.420060
0.037378 -0.006601 -0.330860
-0.009114 -0.391748 0.194496
0.205056 -0.016520 0.295369
-0.223755 0.254514 0.177625
0.337325 0.011237 -0.673540
-0.027914 -0.046126 -0.003558
-0.016677 -0.130544 0.300732
-0.002340 0.316681 0.392333
0.132335 -0.043538 0.345713
0.388219 -0.146362 0.201367
-0.053166 0.086038 0.288165
0.211393 -0.048982 0.319476
-0.020673 -0.011478 0.362779
0.038932 -0.026280 -0.638442
0.232475 -0.045634 -0.591727
0.021688 -0.086051 -0.487503
-0.015753 0.012500 0.301791
-0.091940 -0.109881 0.428583
0.417762 -0.253641 0.137229
-0.107989 0.062791 0.285443
0.380547 -0.015724 -0.707250
0.045665 0.316238 0.394989
0.163394 -0.009836 0.311839
0.395630 0.160176 -0.652569
0.071487 0.135820 -0.907611
0.125940 -0.089467 -0.526411
-0.238593 -0.005845 -0.333309
0.189416 -0.052136 0.231610
0.082200 0.031191 -0.001877
0.287076 0.078588 -0.514526
0.047708 0.244720 -0.105522
0.307428 -0.049304 0.266357
0.389454 -0.145579 0.200906
-0.001145 -0.115255 0.168117
-0.094968 0.144365 0.370812
0.123158 -0.050843 -0.582079
-0.050584 -0.035332 0.092171
0.372179 -0.112325 0.214826
-0.226172 0.033065 0.258580
-0.222637 0.023598 0.257320
0.231374 -0.138379 0.397222
0.018430 -0.092303 -0.487140
0.073133 0.100160 -0.662455
-0.261344 -0.073634 0.417201
0.063468 0.080307 -0.875538
0.198264 0.010726 0.269531
-0.119965 0.159062 0.424895
0.051889 -0.028520 -0.657807
0.073692 0.027042 -0.063223
0.384189 -0.181172 0.184102
0.170415 0.193017 0.418639
-0.215593 -0.132369 0.306632
0.052628 -0.104449 0.330303
0.072521 0.373746 0.293123
-0.248433 0.214433 0.198481
0.036749 -0.036853 -0.403218
0.034875 -0.499036 0.134290
0.181776 0.196998 0.413291
0.117871 0.297176 -0.126034
0.034565 -0.203501 -0.718675
0.046576 0.293230 -0.136728
-0.116172 -0.135489 -0.590670
0.054226 0.283418 -0.122822
-0.137733 0.074215 0.450958
0.026916 0.048885 0.429280
-0.109560 -0.029084 0.382153
-0.136019 -0.028008 0.375795
0.001773 0.018186 0.288677
-0.236307 0.133150 0.253066
-0.375800 -0.041950 0.319543
-0.260934 -0.179691 0.005256
-0.002162 -0.200414 0.396202
-0.071351 -0.272358 -0.470580
-0.109004 0.027974 0.357844
0.091541 -0.061081 -0.573584
0.028301 0.025454 0.309366
0.297463 0.061672 -0.525425
-0.340113 0.001518 0.365190
0.148959 -0.018427 0.180035
-0.011810 -0.422749 0.178722
0.071833 0.103951 0.401457
0.017393 0.271049 -0.126302
-0.188281 0.018092 0.403964
0.321378 -0.008653 -0.653186
0.378096 -0.111392 0.216992
-0.011886 0.293138 -0.166451
0.096114 -0.007570 -0.446200
0.192846 -0.094354 0.388153
-0.217579 -0.158324 0.299029
0.162129 0.147135 0.433798
-0.010430 -0.127019 0.231695
0.376298 -0.022127 -0.709118
0.350226 0.120513 -0.607863
0.031602 -0.221303 -0.753077
0.058843 -0.024228 -0.445850
-0.106373 0.161439 0.395391
-0.130240 0.020091 0.390238
-0.033731 0.166483 0.389642
-0.121185 0.281222 -0.581020
0.051951 0.382922 0.284455
-0.028855 0.053859 0.109339
0.023446 -0.160527 0.175929
0.345204 -0.020232 -0.675046
-0.031838 0.263262 -0.485055
-0.134681 0.000179 0.420998
0.025813 -0.068582 0.335938
0.023803 0.257276 -0.116395
-0.124901 0.015274 0.435236
-0.092012 0.005880 -0.306851
-0.117322 -0.385765 -0.591050
0.350903 -0.058982 -0.705901
-0.322731 -0.046980 0.390638
-0.103851 -0.119052 0.016540
0.062227 -0.070857 -0.576650
0.222448 -0.096181 0.250100
-0.140813 0.084758 0.446145
0.117532 -0.013866 0.339666
-0.165359 -0.060312 0.341358
0.163649 0.176342 0.426203
-0.080919 -0.392983 -0.577729
-0.115884 0.043517 0.223621
-0.042719 -0.071762 0.332233
0.023543 -0.033077 -0.530846
-0.274445 -0.117448 0.257114
0.381415 0.105458 -0.641156
0.014736 0.038745 -0.531594
0.034478 -0.042975 -0.621615
-0.249698 -0.138195 0.023927
0.046856 0.231908 -0.106441
0.362694 0.123917 -0.621019
0.186241 -0.018235 0.307998
0.004473 -0.088487 0.002539
0.049344 0.375376 0.319432
-0.046765 0.082136 0.242642
-0.327773 -0.009988 0.382143
0.039693 0.116574 0.431910
0.167689 0.127575 0.432017
-0.192997 0.263761 0.280370
0.249340 -0.097714 0.395580
0.020811 -0.048222 -0.305499
-0.010151 -0.019680 -0.367095
-0.285688 0.126894 -0.379241
0.157244 -0.051999 0.370360
0.018879 -0.139862 0.158503
0.002400 0.062979 0.487168
0.053786 0.008041 -0.251400
0.036873 -0.022588 -0.929327
-0.283163 0.015865 0.220304
0.039049 0.313905 -0.158956
0.072064 0.303096 0.387661
-0.015169 0.038646 0.293600
0.021010 -0.171955 0.171089
0.387189 -0.196432 0.173485
0.023616 -0.008984 -0.572547
0.008075 -0.094742 0.004489
0.042788 0.313139 -0.151402
0.135515 0.387919 0.314675
-0.140157 0.026971 0.388222
-0.296897 -0.118291 0.011245
-0.215401 0.080425 -0.294943
0.314135 -0.037101 -0.649583
0.367378 -0.051910 -0.724248
0.412900 -0.181748 0.175865
0.278449 -0.101524 0.249748
0.025039 0.021911 -0.089398
0.061452 0.071699 0.414980
-0.262786 -0.158016 0.012412
0.017296 -0.041455 -0.255481
0.067042 -0.129950 0.315265
-0.070479 -0.020749 0.198862
-0.011378 0.172557 -0.438004
-0.141687 -0.021482 0.392946
0.285770 -0.016385 -0.618336
-0.395755 0.039189 0.114905
-0.053876 0.039427 0.279450
0.070963 -0.025424 -0.110335
0.356980 0.076815 -0.605426
0.022799 -0.235483 0.224017
-0.236848 0.069126 0.261025
0.020974 -0.019624 -0.392903
0.044960 -0.442602 0.182390
-0.078490 -0.026151 0.297735
-0.091585 0.046491 0.192214
-0.049429 0.094100 0.303080
0.079204 0.088989 0.397309
0.026615 0.035721 0.301926
-0.010181 -0.113305 0.321062
0.002453 0.041281 -0.014124
-0.032264 0.128107 0.402838
-0.222078 0.030625 -0.303472
-0.062585 -0.011574 0.190626
0.012039 -0.015758 0.433954
-0.051285 -0.371732 0.188144
0.061862 0.085040 -0.665357
0.428481 -0.155639 0.184787
0.234193 -0.147803 0.232040
0.170030 0.297964 0.361878
0.008738 -0.012953 0.336937
-0.004920 0.042921 0.441197
0.038749 -0.028942 -0.679300
-0.056935 -0.246108 -0.454679
0.037499 -0.002997 -0.306519
0.219202 -0.160491 0.231727
-0.100528 0.142080 0.372544
0.012996 0.304743 -0.156679
0.103534 0.348928 0.323134
0.040191 0.000964 -0.302597
0.028479 -0.343235 0.234002
0.298502 -0.127185 0.236015
0.376269 -0.048509 -0.736014
0.125967 -0.037960 -0.599186
-0.208742 0.231116 0.316832
0.036349 -0.037041 -0.532943
-0.267223 -0.167784 0.005579
0.040276 0.314528 -0.157665
-0.066931 -0.394221 -0.568863
-0.098383 -0.319006 -0.519954
0.011789 0.019958 0.451762
0.078889 0.010892 0.265393
0.023653 -0.029661 -0.549226
0.123595 -0.108389 -0.390359
-0.048031 -0.395454 -0.562080
0.060448 -0.382481 0.215787
-0.168646 0.033415 0.443377
0.406380 0.147075 -0.664169
-0.115701 -0.348119 -0.555881
-0.038225 0.151477 -0.445333
0.101681 0.000353 -0.438888
-0.007877 0.075036 -0.490919
0.154742 0.163504 0.422872
-0.147021 -0.086756 -0.580400
0.206568 -0.027223 0.301817
0.062211 0.082593 -0.660976
-0.128195 -0.012272 0.382951
-0.011042 0.254554 -0.129621
-0.295341 0.050494 -0.386267
0.188545 0.275919 0.381207
-0.312742 -0.028786 0.172130
0.398262 0.087298 -0.654678
-0.106111 0.022470 0.359432
0.342565 0.122783 -0.602720
-0.191459 -0.184476 0.309850
0.069611 0.019748 -0.086322
-0.149091 -0.023735 0.379863
0.041114 0.306254 -0.147116
-0.275539 -0.254149 -0.046536
-0.293048 0.062844 -0.374156
-0.374503 -0.024989 0.323943
-0.059280 -0.026450 0.291614
0.027015 -0.022949 -0.473610
0.022099 -0.224508 -0.759902
0.054060 0.294971 0.401772
-0.193044 0.067994 0.423057
0.334641 -0.064360 -0.690024
0.028979 -0.043515 -0.300153
0.071756 0.097409 -0.662072
0.086041 0.343691 0.345648
0.302847 -0.021690 -0.636539
-0.126895 0.023539 -0.278399
-0.022446 -0.282094 0.215415
-0.252928 0.019337 0.247622
-0.030337 -0.041017 0.033090
0.007287 -0.066070 -0.174822
-0.190887 0.248543 0.322871
-0.144185 -0.078452 0.390978
-0.046693 -0.367564 -0.538772
0.023983 0.373834 0.324326
0.142756 0.317737 0.337690
0.182233 -0.063055 0.338209
0.080661 0.227871 -0.089562
0.152859 0.236945 0.381990
0.280362 -0.058754 0.257075
0.354309 -0.072705 -0.719096
0.027784 -0.031263 -0.733575
-0.267306 0.084438 0.247490
-0.256818 -0.006595 0.229312
0.110191 0.002490 -0.444268
-0.252877 -0.060682 0.223653
0.122985 0.289268 0.350769
-0.152456 -0.053838 0.310401
0.032123 -0.460756 0.165979
0.059326 -0.024070 -0.446980
-0.058314 -0.103674 0.318877
-0.045143 0.036605 0.182485
0.018467 -0.286858 0.235867
0.065252 0.345958 0.352300
0.371601 -0.031007 -0.707122
-0.014891 -0.082053 0.350589
0.053478 0.016812 -0.217165
0.024843 -0.158681 0.174900
0.019630 -0.135355 0.126631
0.026141 -0.019816 -0.506400
0.076100 -0.093142 -0.518129
0.037948 -0.051966 -0.063356
0.119987 0.151079 0.373431
-0.211895 -0.075962 -0.629426
-0.340679 -0.004304 0.369467
0.136110 0.120597 0.406682
-0.057744 0.096655 0.321194
-0.098326 0.159839 -0.496649
-0.033406 -0.092279 -0.079537
0.193001 0.209865 0.402824
0.309672 -0.146102 0.225788
-0.307301 -0.177013 -0.033442
-0.039551 0.311505 0.386878
0.048151 0.227150 -0.103226
0.124223 0.072336 0.323006
-0.285889 -0.011134 0.204075
0.220621 -0.033810 0.298638
-0.104228 -0.099719 -0.584024
0.191953 -0.128414 0.241064
-0.040555 0.042472 0.431910
-0.274625 -0.097554 0.032999
0.345534 0.087648 -0.599746
0.003992 0.260523 -0.129473
0.186027 0.279582 0.378293
0.085293 0.346050 -0.180735
-0.001922 0.060094 -0.504174
-0.200181 0.183892 0.259580
0.028655 -0.087930 -0.745827
0.097351 -0.410583 0.203802
0.035787 -0.043080 -0.703039
-0.361884 -0.000550 0.122533
0.104372 0.304727 0.341402
-0.055525 0.291626 -0.521884
-0.039834 -0.162427 0.346043
-0.091621 -0.186084 0.345447
-0.032593 0.055968 0.131477
0.060888 0.318139 -0.136744
-0.309336 -0.144829 -0.015531
0.368063 0.126369 -0.627581
-0.169718 0.091656 0.436053
0.166771 -0.112981 0.388195
-0.076607 0.034799 0.309218
-0.007151 0.255468 -0.132804
0.061175 -0.064786 -0.074733
-0.068786 -0.022112 0.193459
-0.047140 0.067583 0.194070
0.279384 -0.167930 0.217646
0.049728 0.025535 -0.146712
-0.182998 0.219869 0.358244
0.027052 -0.046194 -0.607224
0.086000 0.344816 -0.173716
0.027580 -0.021478 -0.950864
-0.090810 -0.395872 -0.585476
-0.147447 0.243278 0.358363
0.426986 -0.161759 0.182141
-0.001473 0.256402 -0.131518
-0.168866 0.218465 0.371763
0.031453 -0.021526 -0.496030
-0.054995 -0.366029 -0.540309
-0.116524 -0.327371 -0.539405
0.006975 0.029118 0.464873
-0.017040 -0.089056 -0.081227
-0.059439 -0.235252 -0.445360
-0.029862 0.059565 0.447516
0.053453 -0.036173 -0.645458
-0.004910 0.108447 -0.462687
-0.000910 0.106332 0.441854
-0.216932 0.075667 0.271458
0.037503 -0.023412 -0.548795
-0.084998 -0.022881 0.274166
0.034372 -0.038250 -0.393110
0.315730 -0.034357 -0.646722
-0.127816 -0.111490 -0.589305
0.034175 -0.121027 -0.702560
-0.001333 0.035101 0.025590
-0.362611 -0.000744 0.341983
-0.203739 -0.155752 0.308999
0.238451 -0.141448 0.400325
0.277876 -0.011965 -0.610071
0.097292 0.065809 0.378249
0.373358 -0.010859 -0.702617
0.156346 -0.022416 0.189266
0.084093 0.028733 0.007717
-0.360448 0.048115 0.149552
0.237445 0.020444 0.227121
0.140638 0.108531 0.408101
0.038912 0.025803 -0.125966
0.024987 -0.019833 -0.440655
0.271046 -0.044734 0.263041
0.378147 -0.087433 0.222938
0.234979 -0.116353 0.242173
0.051437 0.013778 -0.216159
0.013416 -0.059284 -0.205489
0.086683 -0.069510 -0.563220
0.064890 0.337941 -0.174320
-0.248430 -0.127120 0.278433
-0.321379 0.091685 0.220293
-0.000474 -0.070975 -0.103195
0.018196 0.044033 0.490304
-0.107852 -0.121678 0.016667
-0.133450 -0.027698 0.376816
0.336953 0.052266 -0.569542
-0.316988 0.071835 -0.426983
-0.234321 -0.048966 0.240046
-0.323043 -0.014130 0.389516
-0.159885 0.193691 0.381401
0.035052 -0.107604 0.228741
-0.297316 0.035100 -0.392740
-0.059779 -0.011853 0.189667
0.188800 -0.051692 0.228740
0.049694 -0.024549 -0.442109
-0.110214 0.018573 0.383988
0.035073 -0.015359 -0.313113
-0.001877 -0.061138 -0.128487
-0.000491 0.198698 -0.443926
-0.400141 -0.014501 0.272067
-0.278906 -0.205171 -0.019415
0.039444 -0.070001 -0.062483
0.354693 -0.161494 0.204210
0.090106 -0.366514 0.246315
-0.311621 0.044357 0.196416
0.209118 0.204190 0.411505
0.420293 -0.170162 0.180064
-0.233241 0.191434 0.226093
-0.005215 -0.129101 0.211567
0.118106 0.339139 0.326138
0.022227 0.005971 -0.565437
0.354578 -0.170635 0.196686
-0.003125 -0.127776 0.292690
0.139489 0.373371 0.321942
-0.298809 -0.065951 0.405334
0.040343 0.000069 0.327341
0.092599 0.305274 -0.127623
0.101264 -0.067857 -0.561943
0.133392 0.007819 -0.437519
0.031173 -0.022269 -0.369521
-0.094584 0.045097 0.201074
0.034077 -0.022100 -0.721604
0.085502 0.178889 -0.677848
-0.122054 -0.152807 0.420931
0.025792 -0.026580 -0.846556
0.082026 -0.339440 0.242330
0.321145 0.041363 -0.542439
0.112616 0.113646 0.369669
-0.164295 -0.149392 0.330650
0.023051 -0.085107 -0.490590
0.067552 -0.040599 -0.650860
-0.391593 -0.006689 0.272752
-0.361684 -0.007629 0.346031
0.348396 0.044347 -0.578531
-0.096467 -0.062634 0.417723
0.305969 -0.004266 -0.644193
0.434128 0.154599 -0.689164
-0.109395 -0.027882 0.317722
0.361306 -0.209714 0.173431
-0.256701 0.213825 0.190745
0.129136 0.219359 0.391731
-0.124539 -0.104538 0.429232
0.140970 -0.079169 -0.548020
-0.202000 0.103781 0.277634
-0.101918 0.137622 0.309577
0.048878 0.026642 0.265986
0.060954 0.013515 -0.166750
-0.094204 -0.123587 -0.010752
-0.011576 0.062170 0.442374
-0.145541 0.070406 0.449387
-0.402952 0.031556 0.103948
-0.121869 0.169121 0.297170
0.090136 -0.355018 0.234427
-0.066236 0.007910 0.372291
-0.113661 -0.372357 -0.577120
0.246210 -0.032386 0.276202
-0.146697 -0.086167 0.345486
-0.191831 0.162605 0.275576
-0.023492 0.241407 -0.119989
-0.181392 -0.234616 0.025923
0.033227 0.036787 0.300489
0.070482 -0.053546 -0.314921
-0.183278 0.205682 0.357484
0.039359 0.015143 -0.139375
-0.102073 0.231591 -0.537608
0.299584 -0.066561 0.254222
-0.156075 -0.140462 -0.618035
-0.289597 -0.116180 0.017931
-0.000342 0.057360 0.470007
-0.051012 0.031240 0.249611
-0.118710 0.266978 -0.570182
0.287206 -0.118637 0.243455
0.083848 0.256188 -0.104644
-0.101003 -0.003616 -0.799700
0.138688 0.118010 0.403769
-0.000040 0.262679 0.419408
-0.294569 0.102890 -0.378789
-0.058688 -0.251134 -0.457558
-0.194053 0.245177 0.318329
-0.176309 0.193831 0.258928
-0.012746 -0.183420 0.385443
-0.019001 0.233523 0.417934
0.059150 0.323746 0.377225
0.103150 0.021325 0.109189
0.073570 -0.105873 -0.498571
0.107152 -0.082994 -0.340651
0.286007 -0.062338 -0.628211
0.013452 -0.122345 0.122668
-0.012779 -0.014350 0.346722
0.005963 0.362471 0.346969
-0.262809 0.193804 0.199300
0.286096 0.064070 -0.507201
-0.081076 0.016051 0.350627
-0.061822 -0.049344 0.356592
-0.303709 0.030380 -0.406646
-0.182705 0.262779 0.301248
0.074918 0.086843 -0.660874
0.069584 -0.298827 0.249872
0.062374 0.271181 -0.115148
0.039986 0.333532 0.375291
0.178116 -0.110859 0.389661
-0.376299 -0.044378 0.315108
-0.238726 0.032606 0.254047
0.024277 0.010259 -0.568193
-0.031045 0.273849 -0.495625
0.036022 -0.063274 -0.773376
-0.000900 -0.176786 0.352595
-0.011298 -0.016072 0.362698
-0.238455 0.012988 0.422933
-0.120356 -0.176720 -0.601787
0.123375 0.057978 0.256500
0.235254 -0.101395 0.248000
-0.042207 0.208198 -0.458097
0.057942 -0.400177 0.204417
0.190265 -0.093572 0.387749
0.074456 0.327325 -0.149868
-0.021338 -0.052334 -0.037895
-0.034780 -0.047075 0.001641
-0.013012 -0.167015 0.357759
-0.017871 0.203394 0.418352
-0.074476 0.085058 0.379641
0.111180 -0.018887 0.334672
-0.024469 -0.202793 0.296776
-0.009389 -0.440291 0.168423
0.327682 0.107332 -0.582673
-0.157837 -0.134250 0.049512
0.008539 -0.097924 -0.012863
-0.135567 0.094394 0.297089
-0.074444 -0.276593 -0.477670
0.335617 -0.088598 -0.711402
0.003461 -0.417118 0.190988
0.066432 0.011030 -0.144706
-0.380974 0.016414 0.110955
-0.046757 0.050134 0.141095
0.046264 0.006530 -0.188405
-0.201286 0.051257 -0.868344
-0.082923 -0.111662 -0.019126
0.089894 0.026431 0.002372
0.169086 0.222543 0.393703
0.030958 -0.016203 -0.976760
0.347448 -0.071507 -0.709441
-0.160572 -0.085201 -0.591383
0.329387 -0.182740 0.200956
-0.182293 -0.154165 -0.640404
0.048840 0.347316 0.360353
0.009141 -0.049344 -0.220647
-0.139787 0.240803 0.361016
0.148471 0.128067 0.421310
-0.090220 0.117902 0.309178
-0.175743 -0.003179 0.412863
0.106666 -0.378850 0.227625
0.007139 0.004570 0.298256
0.054362 0.137396 0.413893
0.020870 0.345612 0.367691
0.351027 -0.197831 0.184512
0.035734 -0.021371 -0.495434
-0.276270 -0.203962 -0.015190
-0.061502 -0.077647 0.365489
0.136925 0.114508 0.404366
0.132525 0.365741 0.323460
0.329100 -0.237507 0.163107
0.090799 -0.346627 0.241617
-0.198120 -0.180656 0.306541
0.113208 -0.081035 -0.538090
-0.039054 0.144289 -0.445746
-0.118077 0.203330 -0.533921
0.066052 0.017694 0.227142
-0.008698 0.364797 0.340935
-0.027606 -0.045829 0.003839
-0.016014 -0.184642 0.386886
-0.284463 0.017396 0.220426
0.002004 0.065103 -0.493371
-0.129102 -0.315750 -0.537065
-0.136823 0.007119 -0.821262
-0.102245 -0.066282 0.414031
0.369622 -0.067889 -0.749050
-0.171994 -0.135702 -0.622373
0.120015 0.054555 0.278896
0.258111 -0.075720 0.254858
-0.251413 -0.249308 -0.030788
-0.130624 -0.013232 0.393240
-0.034490 0.133457 -0.451330
0.130777 0.013949 -0.439514
-0.024636 0.047334 0.437991
0.307960 0.097766 -0.552875
0.134347 -0.028436 0.357101
0.315431 -0.205940 0.191234
-0.190713 0.207680 0.343947
0.386540 -0.086644 0.219114
0.125224 -0.111758 -0.393251
-0.116655 0.253800 -0.560728
-0.099658 0.142729 0.419342
0.384454 -0.247859 0.151614
0.168005 0.018797 0.280496
0.024914 -0.035698 -0.518379
0.020393 -0.115212 0.148168
0.104144 0.007427 0.104503
0.022962 -0.106230 0.157004
0.058347 0.264453 -0.111041
-0.210197 0.096283 -0.286450
-0.066873 0.049284 0.172879
0.068874 0.345579 -0.179996
-0.123878 -0.276993 -0.509448
-0.083927 0.079436 0.291356
0.011906 -0.059116 -0.571686
0.018753 -0.070823 -0.534201
0.208299 -0.077845 0.240576
-0.228040 -0.247969 -0.013994
-0.216973 -0.123420 -0.650815
-0.120592 -0.173189 -0.601521
0.117729 0.004493 0.117084
-0.054779 0.140185 0.395997
0.033855 -0.008793 -0.314419
-0.023173 0.006803 0.320628
-0.364604 0.046749 0.145188
0.346395 -0.054779 0.254356
-0.014317 -0.145608 0.343955
-0.005494 -0.403652 0.192929
-0.235703 0.179351 0.234756
0.134344 0.036730 0.254657
0.023189 -0.030276 -0.698330
0.348281 -0.186218 0.190905
-0.099303 0.142762 0.331768
-0.174052 -0.007266 0.395077
-0.165263 0.239919 0.350612
-0.010943 -0.377705 0.204305
-0.011801 -0.066023 -0.066537
-0.277050 0.144856 0.216436
0.386515 -0.044673 -0.746941
-0.271609 0.042331 -0.354482
0.199295 0.197436 0.427125
0.001295 -0.140664 -0.452568
0.123311 0.092366 0.324545
0.108159 -0.420494 0.205414
0.027229 -0.423996 0.191698
0.318432 0.089540 -0.564055
0.338329 -0.127753 0.224431
0.129198 0.077344 0.348562
0.094196 -0.109272 -0.487796
0.229287 0.189206 0.417675
-0.140191 0.251679 0.346762
0.016399 -0.234065 -0.791391
0.150665 -0.053417 -0.591116
0.039493 -0.214619 -0.736663
-0.010946 0.034654 0.015263
0.043010 0.037574 0.297838
0.382507 0.067079 -0.626637
-0.043896 -0.043227 0.071992
-0.256880 -0.236040 -0.023732
-0.024589 -0.253165 -0.443319
-0.067646 0.085253 0.361729
-0.017894 0.234429 0.417925
0.408722 0.117574 -0.665161
-0.201866 0.006749 -0.289676
-0.085420 -0.322361 -0.514696
0.305199 -0.072232 -0.648846
-0.068849 0.143441 -0.472317
0.259143 0.010998 0.216098
-0.112995 -0.122833 0.348103
-0.094742 -0.390376 -0.583395
0.194116 0.008577 0.280727
0.372035 -0.056486 -0.732781
0.245244 -0.046378 0.387221
-0.007986 -0.027008 -0.374749
0.166858 0.184136 0.421087
0.353575 0.072370 -0.601788
0.043120 0.360028 0.349730
0.055442 0.189691 -0.094874
0.042017 0.363416 0.343545
0.025582 -0.077246 -0.527018
0.081057 0.334348 0.359320
0.355341 -0.084551 0.233958
0.431754 0.155844 -0.686975
-0.012458 -0.130548 0.244919
0.055028 0.006684 -0.187350
-0.018832 -0.192805 0.404033
-0.277821 0.037411 0.229011
-0.085781 -0.274303 -0.481333
-0.005294 -0.305500 0.228314
-0.088193 0.193322 -0.501501
0.037421 0.104284 -0.661944
0.179650 0.002880 0.299322
0.323533 -0.118928 0.233446
0.067032 -0.067031 0.326670
-0.001404 -0.055743 -0.570676
0.423750 0.130608 -0.680105
0.015051 -0.109347 0.109830
-0.024994 0.246182 -0.145514
0.012566 0.367247 0.335370
0.243899 0.004539 0.240188
0.079749 0.023545 -0.078990
0.233176 -0.137640 0.402672
0.054875 0.255345 0.429074
0.043811 0.077599 -0.895245
0.197555 -0.133036 0.397817
0.173859 0.011585 0.291690
0.074730 0.343222 0.345787
0.125648 0.342793 0.327504
0.051250 -0.046204 -0.328314
-0.098897 0.144370 0.368399
-0.292180 0.059937 -0.373787
0.125366 0.282850 0.355880
0.037122 -0.012871 -0.336046
0.315089 -0.234737 0.153750
0.005953 -0.097417 0.041660
-0.102201 -0.004369 0.327120
0.093272 0.331923 -0.151835
-0.020159 -0.012443 0.390079
0.060651 0.302773 0.392515
0.162727 0.017419 0.281694
0.344200 0.118373 -0.601162
-0.121275 -0.263889 -0.499002
0.312224 0.006462 -0.647789
0.059159 0.350566 0.345841
-0.173277 -0.189594 -0.646047
0.064497 0.130060 -0.917693
-0.129628 -0.188950 0.398859
-0.381028 0.061623 0.131990
-0.139528 -0.122229 0.343152
0.428523 0.121424 -0.682410
-0.301438 0.071453 -0.394966
0.189147 -0.053118 -0.585116
-0.034697 0.069777 0.451073
-0.250898 -0.074076 0.274990
0.408867 -0.129377 0.194683
0.316983 0.002802 -0.660579
0.007224 0.120276 0.425446
0.027953 -0.021075 -0.559910
-0.023665 0.032832 0.293876
-0.063382 0.099287 0.375832
0.367889 -0.066539 0.244050
-0.244065 0.002468 0.417487
-0.141489 0.022826 0.397386
0.292201 -0.213404 0.188598
-0.318829 0.105744 -0.426489
-0.176867 0.029324 0.427557
-0.059529 -0.099647 -0.054082
0.077033 0.053082 0.395837
0.012483 -0.125365 -0.460149
0.043327 -0.111358 0.273469
-0.072462 0.119077 0.401725
-0.215509 0.224301 0.216895
-0.195060 0.239157 0.211938
-0.015484 -0.130317 0.340312
0.108989 0.114079 0.385794
0.130220 0.015788 -0.436971
0.124460 0.275332 0.363533
0.286414 -0.003697 -0.618288
-0.149648 -0.023601 0.390198
-0.214117 -0.177136 0.297890
-0.014051 0.110240 -0.453352
0.046127 0.248757 0.425769
0.087599 0.345732 -0.178328
0.251613 -0.089464 0.251395
0.059823 -0.099769 -0.503233
-0.060598 0.209911 -0.469997
0.003644 -0.080181 0.337915
-0.061116 0.016740 0.393447
0.128469 -0.046046 -0.603562
0.250498 0.017123 0.216357
-0.299283 0.052197 -0.393098
0.236486 0.052841 -0.473955
-0.297130 0.098627 -0.387644
0.030439 -0.012443 -0.952568
-0.239027 0.072812 -0.315330
-0.168747 0.250212 0.331520
0.045669 -0.072904 -0.554677
-0.102827 -0.075021 0.422715
0.033021 -0.027865 -0.743680
-0.049908 0.056967 0.434684
-0.354002 -0.041566 0.358627
-0.332261 0.002867 0.377261
0.160815 -0.016423 0.322528
0.026817 -0.209638 0.210465
-0.250323 0.049918 -0.322057
0.194979 -0.011817 0.302854
0.125997 -0.040018 0.351234
-0.178933 0.234581 0.347831
0.055893 0.250436 0.357724
-0.032425 0.057536 0.100051
0.298339 -0.128560 0.236128
0.041095 0.007691 -0.234013
0.025643 0.014540 -0.567959
-0.000901 -0.070847 -0.090453
-0.235824 0.047292 -0.307656
0.018513 -0.038105 -0.676803
0.010915 -0.062179 -0.210655
0.008682 -0.022010 0.362792
0.118398 0.370633 0.316122
0.178199 -0.040439 0.328994
-0.248883 -0.163989 0.013772
0.048877 -0.026370 -0.452642
-0.125666 0.210636 0.393538
0.033543 -0.026561 -0.855339
-0.002810 -0.061653 -0.107313
-0.017707 -0.029576 0.392621
-0.213555 0.018079 -0.297121
0.089783 0.135301 -0.667828
-0.097347 0.146058 0.368549
0.003266 0.031552 -0.529305
0.037178 -0.065276 -0.050577
0.047954 -0.469479 0.167295
0.004115 -0.079430 0.337400
-0.113728 -0.103242 -0.587991
0.267893 -0.068027 -0.613021
0.055638 -0.051019 -0.081989
0.041392 -0.024304 -0.916161
0.018368 -0.120975 0.125038
-0.044698 0.244244 0.402717
-0.007927 -0.019831 -0.369324
-0.286477 -0.043969 0.198283
0.024377 -0.021088 -0.496280
0.108947 0.112860 0.385942
0.003155 -0.214595 -0.747935
-0.086918 0.126874 0.409080
-0.065406 0.009284 0.372692
0.065456 0.386945 0.273835
-0.248540 -0.039864 0.424248
-0.135179 -0.019291 0.377319
0.107589 0.017819 0.097413
-0.220566 -0.089886 0.301807
-0.038801 -0.373833 -0.530182
-0.135161 0.001986 0.423270
0.034832 -0.018447 -0.719790
-0.071200 -0.089466 -0.599103
-0.208988 -0.067114 0.307541
-0.284566 -0.053903 0.412872
-0.232649 -0.061305 0.294644
-0.015466 0.121074 -0.448337
-0.114186 -0.403458 -0.603876
0.102932 -0.362487 0.234074
-0.029662 -0.210068 -0.442747
0.219078 -0.028774 0.383190
0.042040 0.008035 -0.176247
0.215450 -0.062098 0.242311
0.040546 0.345616 0.366120
-0.081127 0.104438 0.393066
-0.395777 -0.011626 0.084611
0.337100 -0.247726 0.162363
-0.027245 0.256446 0.411197
-0.103606 0.044244 0.320948
-0.001349 0.064474 -0.491626
0.146944 -0.004180 0.312127
-0.054388 0.229956 -0.475016
0.328465 0.084217 -0.574250
-0.276132 -0.251862 -0.048908
-0.132588 0.037425 0.366579
-0.084915 0.147155 -0.484625
0.185286 -0.053673 0.378466
-0.058456 0.321776 0.377385
0.143401 0.357949 0.328279
-0.162133 -0.158173 -0.622486
-0.096819 0.000353 0.340577
-0.366734 -0.052994 0.339110
0.247388 -0.007709 0.253071
0.309916 -0.076956 -0.661033
-0.157852 -0.168582 -0.621913
-0.231079 -0.078868 0.294109
0.373207 -0.223753 0.161667
-0.360203 0.043248 0.145810
0.356883 0.060420 -0.596751
0.119078 0.251330 0.378003
0.200415 0.120230 0.446505
0.036455 -0.036782 -0.436337
0.076706 -0.439856 0.184083
0.144194 0.304718 0.345540
0.299132 -0.220738 0.183724
-0.006035 0.342863 0.367370
0.009180 -0.094159 -0.048243
0.147239 -0.052382 0.345143
0.222470 0.008465 0.260338
-0.287180 -0.194321 -0.022061
-0.196252 0.073196 -0.276214
-0.104229 0.150001 0.380576
0.046986 -0.105334 0.305964
-0.217917 -0.195645 -0.680767
-0.245433 -0.168438 0.018898
-0.271756 0.260417 0.121774
0.040318 -0.031495 -0.481943
0.000834 0.050628 -0.520110
0.044652 0.310066 -0.146755
-0.025698 -0.145923 0.359472
0.209848 0.021609 0.252177
-0.230798 0.086989 0.267683
-0.178488 -0.155031 0.322490
0.019010 0.313601 -0.162751
-0.335828 -0.026020 0.381417
0.113852 -0.001349 0.130753
-0.034152 0.326182 0.377947
0.053212 0.132432 -0.107877
-0.044439 0.135797 0.373028
-0.087526 0.119270 0.312511
-0.180751 0.070873 0.435740
0.044207 0.338703 -0.179855
-0.106738 -0.240500 0.347088
-0.002789 -0.185023 -0.707294
0.216875 0.196088 0.414952
0.015812 -0.051960 0.352696
-0.166306 -0.138393 0.331695
-0.161201 -0.213382 0.034387
0.010017 0.040340 0.001823
0.018881 0.052555 0.495129
-0.007200 -0.169184 -0.690091
0.104948 -0.374103 0.229228
0.118748 0.065255 0.360192
0.067215 -0.153689 0.337644
-0.055300 -0.168628 0.323229
0.198213 0.169127 0.438678
-0.025355 0.045841 0.073931
0.238590 0.050532 -0.475768
-0.066414 0.319029 0.375773
-0.052887 0.082575 0.256337
-0.030751 -0.135713 0.292153
0.002750 0.247489 -0.114456
0.425783 0.115640 -0.681121
-0.051168 -0.035836 0.108214
-0.001373 0.063746 0.479734
0.024085 0.032630 -0.103320
0.161634 -0.017292 0.363428
0.041072 0.379687 0.305988
0.114984 0.107805 -0.671076
-0.222264 -0.136992 -0.661862
-0.104994 -0.263600 -0.488021
-0.371315 0.039463 0.132973
0.013353 0.326175 -0.181966
0.044898 -0.032615 -0.383131
0.099530 -0.442184 0.191000
0.243706 0.059882 -0.478098
-0.314790 -0.175346 -0.038420
0.109399 0.246894 0.376842
0.335690 0.039900 -0.574053
-0.238703 0.030167 0.254535
0.078680 0.017950 -0.035452
0.005976 -0.049290 -0.245355
0.109266 0.370196 0.315904
0.158659 -0.026562 0.198976
-0.075712 0.036454 0.309962
0.018604 0.024105 0.369374
0.298897 -0.084010 -0.650820
-0.031418 -0.038298 0.047570
0.136764 0.118167 0.403224
0.038627 -0.032532 -0.493859
0.185690 0.025424 0.265675
-0.045149 0.095542 0.402268
0.006159 -0.068582 -0.154682
-0.102370 -0.061571 0.417806
-0.005222 -0.025224 -0.621100
-0.255178 -0.016482 0.421931
-0.094590 -0.208549 0.342348
0.446554 -0.224149 0.142756
-0.122073 -0.277151 -0.508482
0.003260 0.207860 -0.446481
-0.219900 0.059775 -0.298829
-0.168852 0.013768 -0.846696
0.068999 -0.012953 -0.442461
0.088393 0.018182 0.146125
-0.229001 -0.109438 0.296223
-0.058968 -0.004548 0.193583
-0.241890 -0.018556 0.239883
0.019514 -0.126665 0.140585
0.009834 -0.066911 0.343498
0.016356 -0.113719 0.093981
0.178987 -0.064907 0.341866
-0.026945 -0.423644 0.173782
0.035858 -0.400184 0.207839
-0.388940 -0.008615 0.094189
0.032080 -0.104581 0.174697
0.037450 0.034355 0.297847
0.011355 0.322364 -0.182833
-0.044544 -0.063575 0.000755
0.099179 0.272702 -0.110562
-0.053316 -0.020532 0.170852
-0.009620 -0.175566 -0.701737
-0.289003 0.058371 0.219683
-0.355640 0.067481 0.169082
-0.151671 0.039705 -0.830466
0.167825 0.091982 0.429738
0.027264 -0.028348 -0.953664
0.045668 0.196717 -0.092236
0.001720 -0.052725 0.359323
0.033982 -0.110923 0.202704
-0.225526 -0.116476 0.299077
-0.022043 -0.143510 0.298891
-0.003004 -0.025681 0.354730
0.309979 -0.193741 0.200987
0.226836 0.185059 0.427463
0.083229 0.327814 0.331465
-0.160204 -0.186441 -0.629927
0.144749 0.335313 0.332413
-0.324955 -0.198363 -0.060256
-0.211594 -0.031870 0.253995
0.042642 0.002145 -0.284878
0.004076 0.061084 0.438718
0.297671 -0.152507 0.224907
-0.289793 0.026053 -0.385722
0.325907 -0.030513 -0.661306
-0.012722 -0.345909 -0.508439
0.001383 0.054711 -0.500716
-0.048566 -0.272220 -0.461914
0.004492 0.299082 -0.154651
-0.122137 -0.148970 0.424554
-0.061674 -0.089550 0.363205
0.387404 0.132358 -0.650998
-0.085147 0.132532 0.336700
0.171229 0.256835 0.376129
-0.200104 -0.019348 0.258869
-0.301486 -0.079714 0.396295
0.213985 -0.052366 -0.585872
0.174676 0.122544 0.431420
0.072940 -0.457549 0.171543
0.054117 0.356534 0.346796
0.195527 0.041483 -0.453817
0.035571 -0.022881 -0.938143
-0.120604 -0.353446 -0.563811
0.013399 -0.116605 0.084236
0.032151 -0.009865 -0.526440
0.257804 -0.093083 -0.617364
0.018605 0.132963 0.411677
0.034946 -0.441850 0.181275
-0.182110 0.016979 -0.857105
-0.143112 -0.021755 0.389033
0.109560 0.207308 0.385703
-0.104257 -0.349189 -0.552478
0.376348 0.128998 -0.643971
-0.138800 -0.058448 0.390013
0.054611 0.053104 -0.667806
0.442467 -0.243271 0.140289
0.061805 0.026181 -0.156314
-0.234208 -0.062836 0.294524
0.209264 -0.115411 0.239955
-0.027733 0.185404 0.398204
0.077419 -0.339743 0.237840
0.136256 0.160819 0.392842
-0.106142 0.227633 0.381306
0.069963 0.335925 -0.167008
0.018615 -0.035475 -0.693433
-0.211562 -0.182354 -0.670037
0.309121 -0.144128 0.223265
-0.264926 0.233766 0.161463
0.119071 0.324867 -0.140869
-0.342897 0.087026 -0.457031
0.352541 -0.248818 0.161636
0.148792 0.313134 0.341599
-0.036421 -0.044127 0.054553
-0.068973 -0.099701 0.317294
0.351385 -0.080782 -0.727251
-0.092253 -0.234921 -0.468496
-0.075442 -0.013805 0.311652
0.155042 0.026309 0.275247
-0.020141 -0.180951 0.298862
0.048018 0.059615 0.424303
-0.118872 -0.101163 0.429416
0.009470 -0.468835 0.158438
-0.265810 -0.154827 0.011854
0.064893 0.136787 -0.921367
-0.138834 -0.014547 -0.832209
0.071366 -0.010757 -0.114477
0.361728 -0.027807 -0.698641
0.295541 -0.154038 0.224625
0.091067 -0.077360 -0.546727
-0.317731 0.041556 -0.415370
0.130438 -0.030842 0.342345
-0.137612 0.223939 0.384140
0.330990 0.108400 -0.585404
0.001838 -0.115581 0.318420
0.047068 0.018816 -0.709583
0.064648 -0.125345 0.310308
-0.040167 0.125458 0.355635
0.152328 0.362197 0.329227
0.057429 -0.047569 -0.607357
-0.053249 -0.171060 0.320459
0.110951 0.064943 0.359736
0.031362 0.000365 0.334964
-0.251837 -0.072429 0.279340
-0.234460 -0.098269 0.290867
-0.067605 0.161255 0.408293
-0.205997 -0.195954 0.024914
-0.187417 0.218983 0.349193
0.165005 0.021551 0.278710
-0.098726 -0.358023 -0.557459
0.117740 0.010681 0.146174
0.032825 -0.382639 0.216860
0.133126 -0.110458 -0.502981
0.347978 -0.224791 0.150391
0.057303 0.121937 -0.919262
-0.283387 0.067194 0.229577
0.234996 -0.130439 0.396836
-0.143634 0.103583 0.297032
-0.197602 0.152382 0.276777
-0.023215 0.049495 0.075325
-0.112507 -0.035581 0.351614
0.055684 -0.326300 0.236161
0.097511 -0.350285 0.242569
0.125458 -0.113187 -0.368402
0.150285 0.028917 0.269000
0.323578 0.061280 -0.561067
-0.011536 -0.019368 -0.366675
-0.259332 -0.187500 0.003484
-0.050826 -0.027405 0.097512
-0.101054 -0.000715 -0.797337
0.109399 0.007570 0.110605
-0.187031 0.228300 0.347276
0.332694 0.097096 -0.589720
-0.066904 0.025125 0.331469
0.121438 -0.002421 0.134817
0.226405 -0.001802 0.267635
-0.070231 -0.400607 -0.578550
0.332895 -0.075823 -0.693402
-0.119035 0.229915 0.380841
0.031529 -0.021231 -0.357821
-0.117817 0.232994 -0.550480
0.036464 -0.109431 0.220886
0.297478 0.083966 -0.530472
-0.196134 0.253024 0.302651
-0.072685 0.102488 0.384020
0.213879 -0.058911 0.329710
-0.036960 0.128275 0.397058
0.119124 0.249952 0.379442
-0.132218 0.005615 -0.819635
0.012977 0.014471 0.445265
0.136320 -0.045767 -0.602149
0.075402 0.337285 0.331022
0.394555 -0.171829 0.185143
-0.115015 -0.142818 -0.583536
0.014605 -0.049403 -0.612025
0.013009 -0.046147 -0.282433
0.074942 0.014747 -0.100674
0.235936 -0.026590 0.283926
0.101009 0.316292 -0.135383
0.008680 -0.090679 0.321842
0.138850 -0.007741 0.325548
-0.084543 -0.021649 0.268093
-0.074084 0.020578 0.382016
0.055726 0.290149 -0.128100
0.368557 -0.052497 -0.727261
-0.255805 -0.264582 -0.034924
0.041015 -0.030112 -0.485543
0.198444 -0.060885 0.245128
0.122928 0.140069 0.377586
-0.241494 0.128436 0.250611
-0.159601 -0.074368 0.337860
0.119938 0.105579 0.356654
0.142166 0.368479 0.329219
0.045135 -0.173798 -0.680825
0.012186 -0.416499 0.193786
-0.191068 -0.139466 0.048010
-0.286131 0.157576 0.201968
0.032953 -0.163684 -0.689972
-0.326121 0.098896 -0.439518
0.035708 -0.040806 -0.353009
-0.300749 -0.165135 -0.019509
0.041882 -0.021740 -0.685868
0.026888 -0.056503 -0.580299
0.122535 0.009479 0.282858
0.117413 0.066958 0.338541
0.145861 0.301966 0.346299
0.232298 0.196102 0.408213
-0.350398 -0.031925 0.135237
-0.223182 0.141261 0.259954
-0.306485 0.017346 0.387780
-0.079810 0.171599 -0.486309
-0.124482 0.189099 0.394931
0.060162 0.080321 -0.881867
0.123296 0.007536 -0.436743
0.063102 -0.308128 0.244182
-0.358977 0.007535 0.126850
0.003863 -0.306727 0.232336
-0.202792 -0.179266 0.299991
-0.164906 -0.098616 -0.602483
-0.066305 0.014304 0.378165
0.334495 -0.063178 0.250479
-0.127328 0.027929 0.378833
-0.038098 -0.030587 0.368747
-0.010105 -0.007545 -0.818421
0.020848 -0.051492 -0.282140
0.035737 -0.026344 -0.609170
-0.124304 -0.134478 0.428909
-0.003404 -0.209917 0.411227
-0.215004 0.077190 0.275321
-0.200157 -0.139743 0.045921
0.314720 -0.064592 -0.655032
-0.218515 -0.018787 0.418640
0.410821 0.160048 -0.665254
-0.031429 -0.150996 0.292220
0.028762 -0.027084 -0.902432
0.028086 -0.025598 -0.665163
-0.254802 0.030228 -0.336557
0.013781 -0.097994 -0.471318
-0.138207 0.194997 0.283695
0.063145 0.022410 0.243026
-0.318011 0.052271 -0.427315
0.183930 -0.064432 0.338980
-0.021306 -0.137168 0.256527
0.392562 -0.113972 0.210756
-0.302041 -0.165882 -0.021143
-0.054025 0.096168 0.329393
-0.012268 -0.032585 -0.613562
0.116984 -0.092113 -0.358057
-0.164607 0.102984 0.429275
0.193609 -0.138331 0.230727
0.111432 0.201183 0.385733
0.079122 -0.038597 -0.103276
0.119812 0.387458 0.311166
-0.230535 0.036420 -0.309495
-0.370431 -0.048074 0.333135
0.038865 0.257328 0.422300
-0.141840 -0.150417 -0.610514
0.105691 0.263219 -0.104449
0.166032 0.012806 0.362531
0.164587 -0.043806 0.339422
0.110601 -0.092387 -0.520434
0.383841 -0.197491 0.171884
0.079341 0.110719 0.393432
0.457581 0.145774 -0.698584
-0.218530 -0.123519 0.304065
-0.376115 -0.002201 0.307326
-0.156115 -0.018699 0.377721
0.015469 0.040274 -0.530279
-0.021301 -0.018834 0.368303
0.080985 -0.392695 0.213334
-0.277578 0.019544 0.224103
-0.046610 0.068683 0.177071
0.288623 -0.107950 -0.665055
0.353009 -0.082783 -0.726795
-0.055570 -0.008787 -0.317183
-0.142172 -0.024168 0.363242
0.012035 0.043916 -0.523773
-0.017215 -0.124126 0.309982
-0.149624 0.076992 0.294498
0.201369 0.111983 0.444841
0.044717 -0.003853 0.305248
0.288576 0.006682 -0.619245
-0.262897 0.245232 0.148712
-0.009730 -0.304727 -0.475115
0.335766 -0.138902 0.220497
-0.310508 -0.047441 0.170968
-0.179490 -0.161589 0.319821
0.003636 0.015275 0.290465
-0.103963 -0.126781 0.338115
-0.011443 -0.135859 0.287294
-0.000037 0.060086 -0.500164
-0.012519 -0.283497 0.228068
0.073794 -0.283556 0.255223
-0.177530 -0.194333 -0.651226
-0.045393 0.199025 -0.450769
-0.069734 0.003733 -0.801933
0.001000 -0.101192 0.024396
0.073000 0.093098 0.405110
0.058445 0.097763 -0.897551
-0.173449 0.215386 0.249455
0.311373 -0.098899 -0.688116
-0.002904 0.106517 0.428718
0.143823 0.212330 0.390323
0.283252 -0.099156 -0.641610
0.116671 0.106816 0.348584
-0.023177 -0.167185 0.363941
-0.076543 -0.265015 -0.469664
0.006988 -0.001085 0.427162
-0.105247 -0.095041 0.431212
0.041381 0.261457 0.420650
0.405132 -0.227855 0.151020
-0.047802 -0.023604 0.247219
0.023295 -0.022251 -0.522154
0.202611 0.044237 -0.455312
0.105740 -0.065859 -0.560995
0.306096 -0.064146 -0.644773
-0.131776 -0.165445 0.412107
-0.324043 0.020265 0.381999
-0.370717 0.023567 0.127391
0.052010 -0.089562 0.296637
0.262157 -0.045316 0.257500
0.072531 0.098312 -0.877219
0.115293 0.211275 0.386686
-0.110640 -0.274892 -0.498384
0.141993 -0.090996 -0.527583
0.018829 -0.038169 -0.300777
-0.043345 0.045042 0.154264
0.000202 -0.135162 0.326328
-0.006720 -0.204722 0.408381
0.053667 0.034113 -0.153373
-0.114242 0.234359 0.377921
-0.198441 -0.150889 0.314961
-0.325392 -0.191649 -0.057669
-0.186712 0.043430 0.263905
0.026465 -0.113667 0.271870
-0.143577 -0.010354 0.406402
0.050415 -0.021461 -0.886896
-0.282313 0.097581 0.239952
0.116227 -0.082548 0.377252
-0.009442 -0.099124 0.339233
0.131169 0.323683 0.333769
-0.379141 0.010059 0.303474
0.199220 0.120982 0.445681
-0.049806 -0.076298 -0.603959
-0.263632 -0.171161 0.006426
-0.352161 0.032926 0.322603
-0.011821 -0.025707 0.366816
0.138342 -0.019863 0.352535
-0.364850 -0.014655 0.343203
-0.335004 0.078435 0.190968
0.064874 -0.015539 -0.446364
-0.035612 0.009379 0.400983
0.270231 -0.090015 -0.619715
0.015931 0.050251 0.433316
-0.053931 -0.080567 -0.609587
-0.289301 -0.007136 0.407214
0.032419 0.285876 -0.132180
0.027374 -0.033453 -0.992235
-0.120793 0.196724 0.395344
-0.063997 0.112596 0.363472
0.137403 0.005692 -0.436550
-0.030431 0.016551 0.408508
0.043696 0.281038 0.413098
-0.011107 0.276761 -0.151810
0.327914 -0.121512 0.228640
0.022265 -0.229039 -0.774482
0.335337 -0.078403 -0.699732
-0.010861 -0.113185 0.338021
-0.219240 -0.116329 0.303262
0.353187 0.145743 -0.612069
0.112240 -0.054824 -0.576573
0.169781 -0.036092 0.371089
0.042865 0.258547 0.422169
0.136724 -0.087922 0.376552
-0.121980 -0.025676 0.352622
-0.091020 0.133464 0.324415
-0.191465 0.192899 0.256352
-0.042633 0.051978 0.126545
0.035569 -0.325521 0.236991
-0.246493 0.061977 -0.319841
-0.090149 -0.299324 -0.501855
-0.343788 -0.048933 0.369107
0.208426 -0.030292 0.376985
-0.000537 0.038799 0.439247
0.341799 0.108597 -0.603942
0.049442 0.042137 -0.683750
0.118326 0.271799 -0.111992
0.023035 -0.031731 -0.791443
0.145722 -0.018132 0.188019
0.337326 -0.169899 0.203233
-0.087545 0.124176 0.384923
0.005767 -0.089432 -0.051896
0.020636 -0.030896 -0.830550
-0.178230 0.176661 0.351413
0.446514 -0.259759 0.133767
-0.053183 -0.260605 -0.456831
0.100554 0.003823 0.282464
-0.025834 -0.334325 -0.503066
-0.090969 0.020643 0.351959
0.044597 -0.022914 -0.345708
0.190075 0.158589 0.441124
0.028451 -0.021494 -0.655208
0.438576 -0.235028 0.143948
0.019626 -0.052350 -0.593295
-0.012768 -0.078844 0.355486
0.067176 0.320306 -0.141617
-0.180013 -0.002119 -0.856065
-0.254499 -0.153311 0.019058
0.123757 0.229307 0.387694
0.021305 0.254142 0.421442
0.371336 -0.043819 -0.722492
-0.005536 0.136032 0.408838
-0.002180 -0.078257 -0.060166
-0.228768 -0.223712 -0.001284
0.175862 -0.099845 0.383653
-0.230160 -0.005269 -0.310908
0.012756 -0.328731 0.232891
-0.232693 0.027260 0.254641
-0.028891 0.121713 -0.454836
-0.190267 0.221580 0.347449
0.029247 -0.030027 -0.813360
0.003150 -0.064672 -0.055443
0.073985 0.015364 -0.876337
0.354681 -0.054553 -0.701800
0.005797 0.055239 0.467942
0.076975 0.310027 -0.128532
0.023983 -0.028140 -0.414775
0.230495 0.049154 -0.474718
0.001866 -0.439405 0.178111
-0.240252 0.097214 0.265189
0.017156 0.030357 -0.540152
-0.098333 -0.421942 -0.612287
0.328815 -0.071736 0.248038
-0.204718 -0.162991 -0.663312
-0.303272 -0.137817 -0.006651
0.388681 0.167190 -0.644194
0.127330 0.385328 0.313292
0.020074 -0.053442 -0.233443
0.413644 0.119585 -0.670259
0.117652 0.103713 0.381567
0.117435 0.067778 0.320585
0.049537 -0.471586 0.158839
0.209249 0.202813 0.412188
0.088290 -0.281402 0.256802
-0.250462 0.079717 -0.328723
-0.062347 -0.237872 -0.447944
-0.167628 0.222726 0.251283
-0.035170 0.153526 0.383457
0.360544 0.151262 -0.620594
0.029433 -0.021485 -0.514696
0.056851 -0.072257 -0.565020
0.068084 0.357777 0.335684
0.043583 -0.028878 -0.348218
-0.033849 0.042939 0.144249
-0.024251 -0.185321 -0.439893
0.133261 0.313454 0.338173
-0.271279 -0.231284 -0.026211
0.194049 -0.033382 0.317324
0.325824 -0.053090 -0.670116
-0.303325 0.107991 0.238925
-0.016559 0.035811 0.044015
-0.025971 -0.194476 -0.441180
-0.013266 0.236931 -0.463185
0.110970 0.059439 0.289045
-0.185808 0.210720 0.354731
0.422124 -0.160980 0.183137
-0.058938 0.274956 -0.516065
0.043691 0.071201 0.428364
0.232501 -0.059973 0.386764
0.034734 -0.020502 -0.622468
0.405969 0.140047 -0.666055
0.148023 0.107454 0.414480
0.065046 -0.055935 -0.063157
-0.018715 0.302016 0.395750
-0.007643 -0.174033 0.351177
0.045420 0.085266 0.427910
-0.011467 -0.143347 0.295847
-0.200864 -0.143893 -0.649932
0.034912 -0.024326 -0.617488
-0.013721 -0.040996 0.369590
-0.081617 -0.202706 0.328561
0.358164 0.079097 -0.605703
-0.057820 -0.178995 0.319146
0.131932 0.010676 0.292800
-0.356606 -0.007345 0.359523
-0.107397 -0.005755 0.332499
-0.022771 -0.330640 -0.502060
0.044150 0.328023 0.379155
-0.260366 0.039667 0.240784
0.328375 0.094164 -0.577925
-0.325661 0.081636 0.199503
0.013238 -0.117911 0.182354
0.018858 -0.126647 0.276215
0.244359 -0.163385 0.225823
-0.075862 -0.106043 0.359474
0.030201 0.030506 -0.118256
-0.309418 0.079135 -0.406566
0.134221 0.219049 0.390637
-0.046303 0.017770 0.408464
0.036954 -0.043431 -0.540711
-0.191003 0.012440 0.401751
0.323036 -0.059997 0.253898
-0.043330 -0.043686 0.067701
-0.062202 -0.076460 -0.601138
-0.152407 0.191401 0.385269
-0.134999 -0.016249 -0.825571
-0.012284 0.259163 -0.136460
0.027766 -0.020281 -0.652216
-0.011122 -0.157435 0.306861
-0.091087 0.025083 0.350668
-0.261379 -0.248824 -0.037574
0.179258 0.185955 0.432239
0.008019 -0.154283 0.338019
-0.014701 0.014242 0.406756
-0.291921 0.002344 0.402497
-0.332122 -0.063141 0.377774
-0.223048 0.260318 0.167346
-0.009016 -0.394367 0.205952
0.385739 0.172836 -0.638843
0.068754 -0.051136 -0.085744
0.002529 -0.013445 0.419830
0.367232 0.106482 -0.623084
0.052626 -0.470374 0.161926
-0.131414 -0.005031 0.416682
-0.370169 -0.051922 0.334955
-0.037940 -0.371689 -0.538834
0.348403 0.132427 -0.610920
-0.117338 -0.227992 0.358729
0.366946 -0.011780 -0.695698
-0.242966 0.007058 0.419238
-0.000929 0.034225 0.285867
0.018278 -0.491423 0.140258
-0.006616 -0.148028 0.335802
0.058920 0.097561 -0.659992
0.460774 -0.255328 0.137330
0.170674 0.287869 0.361876
-0.000417 -0.348272 0.222132
-0.000840 0.288670 -0.152708
0.003177 0.318070 -0.176909
0.015018 -0.285953 0.236808
-0.044990 0.270846 0.400483
0.045812 -0.026388 -0.935086
-0.253211 0.167154 0.224181
0.022526 -0.050429 -0.282442
-0.188819 0.192585 0.257102
-0.279143 -0.203332 -0.017432
-0.004666 -0.144252 0.280783
-0.244077 -0.160632 0.022613
-0.237465 0.097816 0.275530
0.155712 0.359152 0.335734
0.073503 0.346811 -0.185666
-0.340242 0.034721 0.345540
0.070573 0.171534 -0.672869
0.208397 0.169282 0.439193
-0.040001 0.041950 0.182232
-0.188712 -0.235995 0.027679
-0.264802 0.240031 0.154852
-0.096028 -0.197087 0.346416
0.000752 -0.415118 0.191036
0.105280 -0.101016 -0.489867
-0.231211 0.056138 -0.308214
0.030218 -0.025400 -0.828472
0.099843 0.013994 0.102844
0.062334 -0.047798 -0.645988
0.111571 -0.110978 -0.479075
0.166080 -0.123546 0.388431
-0.169366 0.031623 0.433651
-0.163588 -0.181921 0.328084
0.073488 -0.371490 0.220806
0.069802 0.019867 -0.069116
-0.065162 -0.030575 0.291043
0.160207 -0.064012 0.347038
0.037807 0.020278 -0.114856
-0.220037 -0.086314 -0.640493
0.098336 -0.000866 -0.438896
0.041803 -0.049565 -0.609418
0.029745 -0.050991 -0.513567
0.041325 0.007216 -0.230927
0.328955 -0.085879 -0.696944
0.391882 0.148122 -0.656679
-0.319595 -0.157008 -0.034836
-0.063794 -0.042926 0.351759
-0.083603 0.021415 0.341672
-0.212224 -0.180481 0.297965
-0.295517 -0.231715 -0.043735
-0.114768 0.153316 0.408261
0.083542 -0.340347 0.242595
-0.031512 0.192143 0.403645
0.055334 0.345634 0.357610
0.114603 0.213560 0.385229
0.063462 0.003173 -0.124612
