0.163398 -0.246406 -0.974186
-0.007571 -0.107966 0.436047
-0.202574 -0.022912 0.022358
-0.102972 -0.189218 0.353101
0.195457 0.011711 0.018437
0.184619 -0.086082 0.238884
-0.021189 -0.082111 0.296003
0.030282 -0.173221 -0.613327
-0.092151 0.070565 0.456467
-0.084843 0.320486 0.021478
-0.086216 0.170420 0.105465
0.080110 0.030518 0.281454
-0.006342 0.286755 0.603095
-0.068642 0.181365 -0.410936
0.031597 -0.318532 -0.639741
-0.061522 0.059465 0.335282
-0.206015 -0.122293 -0.006610
0.088510 -0.198999 -0.739206
0.010866 0.168657 -0.442354
-0.200347 -0.046405 0.030871
0.066033 -0.143661 0.236838
0.005552 -0.004384 -0.173637
-0.120616 0.085376 -0.283970
0.096948 -0.212859 -0.730945
0.072499 0.240289 0.383308
-0.274667 -0.069906 -0.071727
-0.192735 0.137281 0.611197
0.149048 -0.242134 -0.917979
-0.051869 0.280990 0.086828
0.223381 -0.050504 0.008569
0.160230 0.146668 0.378614
-0.029484 0.253993 0.103986
0.342052 -0.083132 -0.098403
0.157738 0.100377 0.002480
0.063869 -0.200875 -0.732615
0.008005 -0.247128 -0.960947
0.002740 -0.118249 -0.271011
-0.203686 -0.144011 -0.141926
-0.100470 0.230216 0.085401
-0.021997 0.267093 0.012312
0.023919 -0.249913 -0.858737
0.016296 -0.108477 -0.269309
0.051374 -0.276448 -0.961443
0.134363 -0.254838 -0.944827
0.037670 -0.204037 -0.720962
0.179121 0.016591 0.021769
0.159617 0.169912 0.370021
-0.121094 0.060503 -0.277833
0.211594 -0.133434 0.021432
0.087976 -0.243497 -0.874419
-0.105598 0.245973 0.042336
0.245660 -0.136991 0.012368
-0.256333 0.134878 0.599515
0.308688 -0.065894 -0.071136
-0.003579 -0.115802 0.449842
0.152659 0.202626 0.354769
0.034719 -0.086657 -0.251772
0.202517 0.074346 0.001937
0.084365 0.270144 0.114103
0.075718 -0.312723 -0.927352
-0.188849 -0.128535 -0.008145
-0.090954 0.071153 0.468982
-0.059981 0.196608 0.158784
-0.036908 0.044082 0.134780
-0.035075 0.209242 0.149840
0.015341 -0.245917 -0.853213
0.246647 0.023068 -0.008930
0.151264 0.206333 0.347044
-0.001627 -0.224267 -0.971788
0.117182 -0.285616 -0.760842
0.020763 0.261209 0.069119
0.103331 -0.089209 0.259035
-0.249228 -0.009221 -0.066369
0.118920 -0.114264 0.087455
-0.148466 -0.163428 0.418363
0.195550 0.081888 -0.001827
0.120624 -0.051932 0.285369
0.107384 0.019498 0.265421
0.294412 -0.039039 -0.057877
-0.108648 -0.053942 0.494040
-0.292782 -0.064819 0.596062
-0.173396 -0.153747 0.375488
0.255195 -0.145486 0.010435
-0.025544 0.247958 0.103416
0.126480 -0.294186 -0.895974
0.081583 -0.148130 0.221338
-0.113489 -0.093549 0.111208
-0.074547 -0.191872 0.424963
0.032101 -0.066091 0.308389
0.153820 0.170606 0.375840
-0.004471 0.013314 0.253551
0.110363 -0.249302 -0.851395
-0.202715 -0.118591 -0.000216
0.102702 0.250215 0.340454
-0.184588 -0.143786 0.369068
-0.202287 -0.140651 -0.055070
-0.365556 0.008624 0.515885
0.126809 0.146768 0.414002
-0.021672 0.144636 -0.275543
0.016640 -0.280191 -0.651453
0.166564 -0.107436 0.189641
-0.027042 -0.217109 0.368111
0.287910 -0.117336 -0.018603
0.045228 0.146184 -0.248304
-0.121480 0.067883 0.533612
0.071261 -0.156127 0.214898
-0.070420 0.167781 -0.300976
0.091243 -0.114122 0.247234
0.001447 -0.026572 -0.049854
0.020882 0.263636 0.061809
0.287332 -0.076624 -0.045980
0.126575 0.115371 0.419022
-0.084000 0.157312 0.150932
-0.032659 0.254919 0.365563
0.046277 -0.227823 -0.855551
0.052789 -0.128658 -0.432805
-0.023935 -0.218510 0.370630
0.107058 0.254943 0.327910
0.034703 0.179075 -0.359654
0.050413 0.104919 -0.196863
0.010293 0.164887 0.169746
-0.070052 0.064708 0.341223
0.121540 -0.106701 0.222508
-0.000320 -0.145203 0.455341
-0.136796 -0.136667 0.438115
-0.260219 -0.093601 -0.003744
0.119487 -0.303415 -0.898478
0.079497 -0.110226 0.268622
0.186126 -0.032295 0.226922
0.306854 0.062302 -0.023133
0.002189 -0.277146 -0.865199
0.014311 0.241412 0.390529
0.007797 -0.010831 -0.018294
-0.326430 0.019653 0.582865
-0.018248 0.199137 0.154114
-0.000980 0.138138 0.391240
0.066135 -0.191519 -0.635063
-0.124138 0.131466 -0.307888
0.138606 -0.046052 0.047587
-0.091784 0.071514 0.457728
-0.252977 -0.029359 -0.063629
-0.119192 -0.138975 0.011682
0.100913 0.284123 0.270709
0.073665 0.271803 0.366739
-0.119042 0.091385 -0.282800
0.115432 0.009811 0.271437
-0.043177 -0.214786 0.399684
0.007283 -0.216278 -0.969833
-0.120112 -0.068861 0.484496
-0.039004 0.235167 0.124524
-0.032726 0.030758 0.225913
0.154225 0.227110 0.276936
-0.264002 -0.061620 -0.024227
0.069025 0.237701 0.398184
0.162915 -0.052636 0.038412
0.016212 -0.203240 0.433881
0.144235 0.223500 0.231761
0.045483 -0.313658 -0.919480
0.037199 0.134781 -0.234110
0.097228 0.231904 0.123978
0.051336 0.175995 -0.289256
-0.231486 0.162729 0.603902
0.060866 -0.154712 0.216754
-0.106821 -0.163205 0.423532
-0.161701 -0.163705 0.386353
0.022354 -0.040343 -0.163888
0.047821 -0.268040 -0.934734
-0.306105 -0.036148 0.603843
-0.020864 -0.112748 0.472766
-0.137036 -0.129123 -0.034451
-0.021903 -0.212761 0.422945
0.166574 -0.051702 0.035186
0.101012 -0.180448 -0.670975
-0.078610 0.176132 -0.310304
0.049355 0.253910 0.388700
0.054718 0.180813 -0.294041
0.096541 -0.156459 0.155945
0.009474 -0.039114 -0.093587
-0.222928 -0.124378 -0.126125
-0.023535 0.020459 0.094681
0.015436 -0.259774 -0.654680
0.049660 -0.117086 -0.361998
-0.072858 -0.213928 0.365394
-0.109293 -0.152143 0.448054
0.028456 0.216217 0.407071
-0.221700 -0.053572 0.013861
-0.363554 0.093737 0.560587
-0.016378 -0.097823 0.421663
-0.048570 0.096768 -0.209741
-0.040168 0.229890 0.133106
-0.102897 0.261498 0.031359
-0.041758 0.239787 0.387865
0.025780 -0.052597 -0.482058
0.112998 -0.249090 -0.938864
-0.075249 0.059609 0.388275
-0.094663 0.087399 0.551537
-0.396106 0.063515 0.497700
-0.164283 -0.100602 0.454094
-0.052528 0.145966 0.577195
-0.027575 -0.286249 -0.688956
0.127183 -0.252298 -0.903212
-0.066933 0.055954 0.297549
0.142487 0.018827 0.036406
-0.086698 0.116855 -0.253268
0.168169 0.172614 0.352916
0.058355 -0.148234 0.232519
0.070583 -0.104236 -0.495584
0.001553 -0.133357 0.442302
-0.077847 0.177607 -0.365187
-0.189751 0.086317 0.571390
0.329721 -0.065972 -0.083616
0.133970 -0.093827 0.241747
0.326016 -0.122154 -0.055518
-0.122022 0.136027 -0.307966
-0.300551 -0.103158 -0.037326
0.064902 0.274443 0.341627
-0.006866 -0.131156 0.239529
-0.081980 0.046041 0.418983
0.159753 0.184871 0.374070
0.010158 -0.032678 -0.169917
0.188233 0.034163 0.014983
-0.015865 -0.120272 0.262687
-0.179019 -0.151878 -0.034828
-0.117019 0.144877 -0.307893
0.096774 -0.239255 -0.868668
-0.038046 0.196074 0.168583
-0.020486 0.238609 -0.054643
0.072970 -0.181713 -0.652415
-0.075167 -0.211486 0.376376
0.350595 -0.072295 -0.102204
0.025893 -0.327894 -0.644439
0.099135 -0.196295 -0.705219
0.173093 -0.087782 0.038005
-0.100171 -0.127487 -0.027379
-0.182613 0.006327 0.015078
0.079106 -0.176542 -0.654530
0.103916 -0.299617 -0.903113
0.024362 -0.323243 -0.929243
0.222171 0.019114 0.003319
0.276760 -0.135103 0.010207
0.057983 -0.250190 -0.872334
0.020691 0.171304 -0.291301
0.000610 0.183152 0.614477
-0.033933 0.160589 0.596669
-0.185502 0.013970 0.000193
0.001844 0.170037 -0.351644
0.068091 0.165160 0.434015
0.123455 -0.028689 0.002900
0.115324 -0.227648 -0.835594
-0.025595 0.107419 0.142466
-0.058164 0.289462 0.042822
-0.097513 -0.042415 0.458915
0.070543 -0.127846 0.257639
0.019251 -0.042764 -0.114848
0.329142 -0.122865 -0.056395
0.115677 0.219996 0.365588
0.063790 -0.038607 0.310250
0.365197 -0.103064 -0.099437
0.117646 -0.099610 0.241050
-0.031829 0.120324 0.578764
-0.027911 0.175456 0.602528
0.112412 0.211106 0.106378
0.054481 -0.119732 -0.429501
0.074387 0.274556 0.047096
-0.079366 -0.120872 0.064814
-0.386662 0.047403 0.510033
0.051829 -0.109754 -0.385104
0.084962 -0.166936 -0.626489
-0.253453 0.171469 0.596721
-0.074531 0.162478 0.566650
-0.021203 0.253787 -0.031438
0.115969 -0.283836 -0.895597
-0.241690 -0.122795 -0.062316
0.038076 -0.265325 -0.859229
0.152334 -0.099976 0.224460
0.092255 -0.160019 0.174881
0.135904 -0.116082 0.167285
-0.116002 0.231499 0.576989
0.002558 -0.245164 -0.964526
0.084392 -0.161886 0.185947
0.038352 0.183220 0.176922
-0.267881 -0.027671 0.620131
-0.010656 0.161555 -0.479245
0.149883 0.122640 0.401710
0.152830 -0.107976 0.153168
-0.137620 0.207515 0.566704
0.023429 -0.051762 -0.149296
0.024589 -0.098967 0.294178
-0.335136 0.083555 0.575561
-0.034932 -0.208262 0.396055
0.051351 0.159265 -0.270074
-0.182324 0.010202 0.008910
0.139001 -0.075012 0.049755
-0.009823 0.166990 -0.458262
0.067021 0.150071 0.441505
-0.033554 0.205172 0.154809
-0.092240 0.253455 0.081411
0.139870 -0.073324 0.264764
0.073083 -0.159430 0.150173
-0.252605 -0.118243 -0.048440
0.004551 0.161353 -0.461509
-0.116793 -0.183557 0.411653
-0.124180 0.100885 -0.294525
0.171904 -0.011251 0.226098
-0.167648 -0.020679 0.050945
0.008290 0.171183 -0.335557
0.037989 -0.247996 -0.879991
-0.011979 0.159482 0.607704
0.307395 -0.006240 -0.046869
-0.085588 -0.202088 0.343199
0.130491 -0.262476 -0.981029
-0.088837 -0.005255 0.445669
-0.051477 -0.056295 0.490706
0.294766 0.040417 -0.030067
0.331242 -0.032688 -0.095433
0.161718 -0.093863 0.237647
-0.325220 0.117799 0.597262
0.321177 -0.045522 -0.082812
0.021941 -0.168890 -0.743775
-0.057837 0.149011 0.581621
0.113649 0.255618 0.315523
-0.173641 -0.084877 0.049634
-0.320388 0.039430 0.582103
-0.020415 0.189232 0.609723
-0.019708 0.230125 0.402579
0.017569 0.210322 -0.064947
0.010665 0.180907 0.432870
0.048270 -0.104366 -0.363265
-0.200070 -0.018103 0.625581
0.233433 0.079466 -0.013050
-0.246286 -0.022470 0.626859
-0.077037 0.056953 0.302417
0.115809 -0.117151 0.089410
-0.326175 0.077146 0.577090
0.040764 -0.253512 -0.871673
0.184945 -0.063471 0.028270
0.103079 -0.267919 -0.987958
0.345050 -0.115989 -0.057208
-0.031807 0.162709 -0.319338
0.094754 -0.067060 0.289081
0.165339 -0.028649 0.248248
0.329370 -0.126801 -0.049226
-0.096273 0.244539 0.588416
-0.090705 -0.205065 0.388536
0.332764 -0.075097 -0.092545
0.057600 -0.139081 -0.469051
-0.047663 0.050574 0.270932
-0.360756 0.125423 0.573466
0.036831 0.161870 -0.271495
0.192648 -0.142031 0.025874
0.092285 0.284552 0.262831
0.133800 0.151707 0.406859
-0.025017 -0.215368 0.382551
-0.094650 0.282129 0.052032
-0.034955 0.052228 0.133838
-0.012544 -0.087905 0.300146
-0.036364 -0.200357 0.450655
-0.148919 -0.130079 -0.040095
0.047821 -0.122129 0.264172
0.196195 -0.093629 0.029236
0.188888 -0.094009 0.156873
0.299141 0.077348 -0.006647
-0.083762 0.071652 -0.217814
0.033200 -0.055438 0.312598
0.030603 0.254424 0.620615
0.102581 -0.288881 -0.974728
-0.011509 0.187953 0.164415
0.144594 0.207835 0.351952
0.078067 0.195116 0.153704
0.153451 -0.252235 -0.927537
0.118298 -0.135926 0.159867
0.226861 0.012120 0.001671
-0.111439 -0.162091 0.421778
0.064302 -0.091886 0.294236
0.046789 0.184077 -0.372471
0.120685 0.265890 0.243133
0.123431 0.207767 0.371868
-0.222508 0.143133 0.605970
0.041810 -0.269072 -0.966809
-0.083352 0.067756 0.447714
0.048363 -0.117179 -0.392755
0.006376 -0.036765 -0.104212
-0.205259 -0.143206 -0.054570
0.018514 0.165042 -0.445720
0.047077 0.236073 -0.017406
0.067219 0.040888 0.267532
-0.042407 0.138681 -0.263800
-0.106299 0.069630 -0.245762
-0.015089 0.257574 -0.017331
-0.052309 0.178561 -0.396590
0.365058 -0.071345 -0.110355
-0.331578 0.015836 0.578564
0.099173 -0.199254 -0.734525
-0.183687 -0.097584 0.408010
-0.093191 0.074752 0.491067
0.207572 0.034230 0.009111
-0.092099 -0.170873 0.434245
-0.014891 -0.100705 0.465263
-0.140492 -0.170687 0.416919
-0.098622 0.089501 0.512982
-0.191995 -0.115130 0.428246
-0.247608 -0.004289 0.622805
0.140681 0.250077 0.254759
0.067764 -0.158526 -0.553318
0.083707 0.038805 0.254739
-0.100351 0.125479 -0.272241
0.116673 0.214799 0.089633
0.144913 -0.241899 -0.987199
0.027984 -0.068957 -0.200533
-0.082765 0.082736 0.558138
-0.106110 0.130265 -0.281223
-0.099462 0.197689 0.097226
0.295110 -0.136633 -0.008092
0.199599 -0.090462 0.203209
-0.031175 0.266730 0.056071
-0.104941 0.246991 0.060755
0.303730 -0.124426 -0.027763
0.075780 -0.153869 -0.564441
-0.064255 0.116712 0.547542
-0.197657 -0.156945 -0.081105
-0.143319 -0.174983 0.402996
0.181577 -0.020157 0.022823
0.165283 0.010501 0.031352
0.088329 -0.273758 -0.973695
0.305115 0.037686 -0.031088
-0.181774 0.016771 -0.009462
-0.050848 -0.208015 0.414818
-0.021801 -0.110835 0.275158
0.006605 -0.037423 -0.092153
-0.063979 0.165157 -0.299219
-0.335089 0.176142 0.552724
0.045264 0.109181 -0.200724
-0.123703 -0.109654 -0.071290
0.055972 -0.044669 -0.465099
0.189157 -0.142263 0.025500
0.053137 -0.206320 -0.665184
0.126734 0.205663 0.373238
-0.027314 0.161367 0.600945
-0.052413 0.278388 0.018522
-0.194419 -0.151161 -0.047986
-0.270698 -0.117990 -0.034410
0.077225 -0.102324 -0.502843
0.117522 -0.234861 -0.819313
-0.062030 0.178123 -0.430416
0.129987 -0.114792 0.097127
-0.208938 0.078926 0.600201
-0.145579 -0.111983 0.458737
-0.118601 0.044538 -0.244872
0.071384 -0.161553 0.156653
-0.090948 0.075236 -0.227917
0.015247 -0.186310 0.429699
0.065226 -0.041000 0.303017
-0.131190 -0.078094 0.106271
-0.056913 0.173014 -0.457373
-0.009996 0.171124 -0.413295
0.103366 0.192995 -0.317892
-0.116486 -0.113882 -0.063401
-0.052833 -0.058090 0.491179
-0.127413 0.143294 -0.339142
0.271574 -0.114745 0.003426
0.026763 0.111979 -0.205685
0.052841 -0.246940 -0.871544
0.020342 -0.026030 -0.059795
0.022880 -0.097967 -0.271745
0.066525 -0.223195 -0.894085
-0.112555 -0.121403 0.069904
0.152660 0.209448 0.341021
-0.175673 -0.151210 0.403127
0.054711 -0.194004 -0.663670
-0.131522 0.189937 0.568969
0.049017 -0.033656 -0.472121
-0.000563 0.259203 0.054919
-0.083578 -0.136465 0.466848
0.300879 -0.009012 -0.042394
0.030649 -0.065648 0.309541
0.032738 -0.138147 0.219282
0.089100 -0.155612 0.135780
-0.255990 0.143784 0.598677
0.012352 -0.224187 -0.847946
0.074181 -0.172904 -0.605236
-0.073768 0.157447 0.171624
-0.211884 -0.122812 0.406643
-0.170657 -0.145228 0.353806
0.055191 0.279022 0.345725
0.323121 -0.040582 -0.085198
0.072461 -0.112346 -0.393314
-0.119771 -0.177250 0.370278
-0.245094 -0.108847 -0.007269
0.335545 -0.087989 -0.092772
-0.068512 0.265412 0.094156
0.017633 0.170947 -0.424080
-0.049282 0.302120 0.056624
-0.196387 -0.146368 -0.145174
0.165686 -0.022566 0.034555
-0.085580 0.154297 0.554331
-0.366650 0.117275 0.551126
0.014686 -0.048988 -0.121360
0.072993 -0.135926 -0.485191
0.051467 0.239641 -0.008661
0.070386 -0.274009 -0.955195
-0.185312 0.014282 -0.000905
-0.234485 -0.106560 0.001899
0.084052 -0.197683 -0.665859
0.085342 0.285708 0.097787
-0.071739 0.065564 0.404348
0.054226 -0.310877 -0.951815
-0.154667 -0.043159 0.458636
0.115086 -0.278704 -0.762317
0.038690 -0.248447 -0.946020
0.076592 0.212553 0.395466
-0.030805 -0.245617 -0.984024
0.155251 0.209618 0.337918
-0.046864 0.300388 0.065208
-0.047313 0.086984 -0.197433
0.128964 -0.046638 0.281116
-0.243919 -0.081392 0.008889
0.158145 0.209305 0.334376
-0.101110 0.246227 0.585270
0.032915 -0.179549 -0.724685
0.098203 -0.292769 -0.991640
0.153681 -0.257673 -0.934560
0.122961 -0.068378 0.276150
-0.113587 -0.189200 0.389855
0.006715 -0.182586 0.444975
0.052648 0.140688 -0.240334
0.013892 -0.066204 -0.176847
0.162728 0.157929 0.353135
0.139393 0.198726 0.370541
0.101755 -0.104041 0.252672
-0.063094 0.312049 0.060204
-0.164014 -0.064864 0.448396
-0.086769 0.205142 0.591679
0.042271 0.256526 0.006532
-0.077713 0.151929 0.115096
0.124495 0.255947 0.295584
0.003735 -0.011482 -0.034179
0.118833 -0.224980 -0.805580
-0.238080 -0.045442 -0.009962
-0.086373 -0.135614 0.465156
-0.000458 0.071026 -0.210963
-0.028409 0.264256 0.050437
-0.109471 0.155869 -0.309909
0.122851 -0.285158 -0.996659
-0.053094 -0.117843 0.478006
-0.028928 -0.219799 0.370968
0.125369 0.257414 0.296620
-0.194205 0.087362 0.575394
-0.030077 -0.081667 0.478056
0.230405 -0.050238 0.003703
-0.004202 -0.118995 0.452657
-0.021520 -0.131694 0.472201
0.153299 -0.266105 -0.956323
0.086251 0.195935 -0.316177
-0.094251 0.074006 0.467657
-0.017144 -0.079351 0.463520
-0.110348 -0.184439 0.358296
0.114722 0.212448 0.100304
-0.024624 -0.218841 0.376695
0.057968 -0.179729 -0.693442
-0.147915 -0.041804 0.470885
0.084866 -0.234770 -0.881249
-0.012811 0.243335 0.615122
-0.095638 0.254769 0.075853
0.120078 0.263398 0.237842
0.078373 -0.148672 -0.543737
0.055530 -0.154054 0.223224
-0.010960 -0.211390 0.397799
0.075930 0.177318 -0.294971
0.043524 -0.209301 -0.717264
-0.083846 -0.099293 0.481223
-0.173223 -0.091796 0.445816
0.052560 0.276292 0.071011
-0.272344 -0.061340 -0.047905
0.224399 0.090495 -0.001818
0.268565 0.089476 -0.024979
0.143999 -0.112585 0.144865
0.095878 -0.076463 0.280609
0.018337 0.255146 0.389211
-0.001312 -0.216238 -0.975201
0.156902 0.018532 0.032540
-0.048963 -0.211878 0.397475
-0.130830 0.251311 0.570943
-0.059317 0.170557 0.186405
-0.300445 -0.108743 -0.041635
-0.024430 0.003724 0.030371
0.065862 -0.174247 -0.659420
0.279653 -0.128853 0.002321
-0.061292 -0.194989 0.435779
0.162897 -0.107298 0.196367
0.055068 -0.184948 -0.630286
0.086977 -0.132419 0.230238
-0.054745 0.287022 0.027319
-0.115795 0.073910 -0.268502
0.026753 -0.172219 -0.733833
0.174152 -0.013091 0.027794
-0.217294 0.071941 0.598387
-0.186629 -0.139161 0.367821
-0.070957 -0.113150 0.067013
-0.043831 0.045316 0.190947
0.024997 0.119035 -0.214441
0.083453 -0.060348 0.295896
-0.096044 0.075114 0.493702
-0.195533 -0.136273 -0.033244
-0.001370 0.106351 -0.218491
0.074051 -0.258231 -0.901133
0.073447 0.107234 -0.202102
-0.395507 0.088020 0.502932
-0.011381 -0.217707 -0.976084
0.303641 -0.077828 -0.065760
-0.063407 -0.130455 0.477276
0.086041 -0.135313 0.232213
-0.122438 0.070672 0.538076
0.146155 0.193464 0.369578
0.058804 0.258994 0.128296
-0.084312 0.157358 0.150079
0.096786 0.156718 -0.265093
0.103967 -0.264546 -0.850340
0.093521 -0.288306 -0.976013
-0.049046 0.052693 0.273793
0.013151 -0.176874 0.423660
0.193609 0.084022 -0.003762
-0.038506 -0.144423 -0.255032
0.099823 0.027450 0.240228
-0.050786 0.287933 0.080158
-0.095947 0.070177 -0.232491
-0.096558 -0.100407 0.473709
-0.216561 0.077364 0.596399
-0.367740 0.060402 0.536239
-0.272489 0.078588 0.597129
-0.212374 0.065553 0.604166
0.060983 0.188327 0.166829
-0.062273 -0.215049 0.385963
-0.222382 -0.129106 -0.132258
-0.019371 0.259260 0.067778
-0.059616 -0.127932 0.477377
-0.140042 -0.141409 0.446137
-0.003848 0.250129 -0.029245
-0.178146 -0.160994 -0.053201
0.095886 -0.196219 -0.725168
-0.052453 -0.205823 0.420976
-0.020076 -0.216832 0.372301
-0.217835 0.038814 0.616581
0.124344 -0.248221 -0.894409
-0.032514 -0.290067 -0.693105
0.112990 0.019000 0.256025
-0.009251 0.255162 -0.019453
0.037057 -0.249679 -0.635739
0.053409 -0.227360 -0.840878
-0.292958 -0.062176 0.598584
-0.085128 0.027459 0.430405
0.032833 0.255193 0.128477
-0.068405 0.197281 0.151068
-0.360285 0.002750 0.521629
-0.011214 0.153736 -0.289333
0.323908 -0.026099 -0.086338
-0.302484 0.057014 0.588990
-0.187208 -0.079442 0.042791
0.126738 -0.252087 -0.893176
0.086611 -0.170587 -0.638345
0.023991 -0.066732 0.310871
0.090202 -0.220314 -0.770501
0.088223 0.217815 0.141069
0.071832 -0.269599 -0.943228
-0.299021 -0.088627 -0.030074
0.256454 -0.103102 0.008020
-0.158862 0.001562 0.028173
0.068824 0.249838 0.017820
-0.026762 0.254274 -0.031096
0.163417 0.173386 0.357313
0.071392 -0.025322 -0.021648
-0.112443 0.171859 0.571014
0.095243 0.249635 0.114381
-0.058051 0.178706 -0.450367
0.069458 -0.164475 -0.560242
0.125058 0.243823 0.220983
0.131590 -0.098306 0.073156
-0.016182 -0.059938 0.446141
-0.072542 0.182168 -0.332811
-0.259612 -0.033398 0.623069
-0.025013 -0.250286 -0.977205
0.104507 -0.273302 -0.861399
-0.027896 0.026307 0.126630
-0.023442 -0.213659 0.402317
0.083273 -0.043975 -0.468548
0.010078 -0.050450 -0.145533
0.273958 -0.013128 -0.022539
-0.064467 0.065592 0.348201
0.031638 -0.303852 -0.639851
-0.153496 -0.085049 0.080731
0.118611 0.267674 0.266179
-0.013538 -0.211877 0.397447
0.081998 0.282435 0.306299
0.041013 0.176822 -0.373965
0.034604 -0.167775 -0.722490
0.134555 -0.110580 0.098822
-0.162575 -0.123208 0.010175
-0.063137 0.062474 0.349634
-0.006694 -0.301182 -0.665655
0.032405 -0.142514 0.225068
-0.166023 -0.026551 0.056527
-0.178930 -0.172980 -0.107134
0.066516 -0.154416 0.220606
-0.082118 0.062626 0.407240
-0.212605 -0.022613 0.620206
-0.270148 -0.113666 -0.090557
0.095778 -0.095658 0.261294
0.071589 0.279942 0.055060
-0.076800 0.155168 0.167080
0.075817 -0.212094 -0.661391
-0.017538 0.266181 0.613836
-0.020351 0.258094 0.061346
-0.277654 0.081143 0.596618
-0.058380 0.153494 0.578332
0.015803 -0.041691 -0.101947
-0.396420 0.057278 0.458852
0.066819 -0.247371 -0.831183
0.035478 0.188552 -0.319976
0.047677 -0.064140 0.305185
0.177446 0.029218 0.017467
0.188560 -0.092868 0.224153
-0.115390 0.081969 -0.272475
-0.151553 -0.160870 0.376077
0.073468 0.207709 0.400751
-0.016552 0.170988 0.150690
0.058052 -0.103476 -0.472429
-0.112201 0.090699 0.523474
0.107927 -0.278526 -0.779482
0.149169 -0.099819 0.226227
0.018776 0.277904 0.361601
0.104434 -0.234090 -0.796251
-0.036906 0.206791 0.153063
0.184454 -0.003500 0.023649
-0.017986 0.182392 0.609880
-0.083647 0.086391 0.556122
0.062619 -0.189071 -0.656654
-0.111510 -0.123341 0.068371
-0.055744 -0.014247 0.044356
0.213969 0.060577 -0.000756
-0.106915 -0.196508 0.389332
-0.233223 0.068727 0.601577
-0.032351 0.242275 0.611381
-0.213044 -0.021332 0.011928
0.068179 -0.312423 -0.923460
-0.095161 0.218796 0.587202
0.129750 -0.104265 0.043248
0.080408 -0.287690 -0.913133
-0.201213 -0.143994 -0.044739
0.004237 0.109384 -0.222993
0.127881 0.246878 0.304167
0.104481 -0.261825 -0.937341
-0.072025 0.174310 -0.443926
0.026445 0.151426 -0.260869
-0.129595 0.275167 0.560284
0.019306 0.173699 -0.409531
-0.235202 0.010249 0.620780
0.076982 0.271701 0.043823
-0.101074 0.277571 0.571945
0.019341 0.287945 0.604448
0.015357 0.227914 0.146160
0.059909 -0.112603 0.275134
0.099405 -0.117780 0.240160
0.149642 -0.250610 -0.994561
0.083915 0.280206 0.105850
0.008405 -0.042127 -0.126537
0.032319 0.184914 -0.309009
-0.083435 0.184066 -0.321258
0.287796 -0.102400 -0.037321
-0.022691 0.159590 -0.313128
-0.299037 0.183101 0.578320
0.119040 -0.243176 -0.954502
0.072457 -0.307523 -0.957703
-0.115737 0.169247 -0.346409
-0.134566 -0.088029 0.474092
0.063500 -0.224723 -0.893882
-0.042133 0.250313 -0.037270
0.058216 0.129277 -0.225882
-0.031733 -0.306111 -0.695913
-0.051066 0.250483 0.112733
0.328603 -0.050067 -0.087645
-0.112330 0.122221 -0.282154
0.096769 -0.210717 -0.723744
-0.312209 0.045278 0.586233
0.081081 -0.238343 -0.829630
0.019397 0.232403 0.625306
-0.005413 0.213274 0.150188
0.270411 0.094129 -0.022117
0.037234 0.265739 0.617316
0.050481 0.185240 0.172444
-0.042232 0.179171 -0.444995
0.000265 0.230617 -0.061172
-0.197515 -0.129927 -0.005800
-0.096561 -0.138916 0.001314
-0.197352 -0.140097 0.384995
0.103048 -0.065603 0.285526
-0.086038 0.178395 -0.379629
0.071099 0.286638 0.280331
-0.061787 -0.127931 0.477350
-0.013615 -0.072494 0.435110
-0.002588 0.166463 -0.420664
0.122013 -0.243129 -0.885806
-0.044596 0.241853 0.382438
0.166919 -0.004779 0.223417
-0.072062 0.219071 0.127293
0.006975 -0.192712 0.449637
0.028954 -0.128600 0.262198
0.016944 0.261371 0.033687
0.064826 0.148489 -0.248849
0.068552 0.206351 -0.330807
0.074875 0.249114 0.374547
0.031065 -0.211152 -0.957107
0.108215 0.257765 0.322636
0.129312 -0.246774 -0.939626
0.050895 0.199400 -0.347285
-0.009620 0.267824 0.360905
0.192197 -0.004816 0.019852
0.028810 0.178921 0.181599
-0.059385 -0.174985 0.458667
-0.092563 -0.126104 -0.029561
-0.104600 -0.126567 -0.034969
-0.091967 -0.071617 0.488695
0.063096 -0.328163 -0.955029
0.004916 0.128705 -0.238695
0.121567 -0.239139 -0.866146
-0.107495 -0.182281 0.355799
-0.073430 -0.214102 0.359314
0.078165 -0.159980 -0.591569
-0.050622 -0.054507 0.490491
-0.292133 0.091120 0.594688
0.010543 0.206758 0.418189
-0.190108 -0.119965 0.006450
0.044159 -0.168563 -0.661560
-0.019739 0.120782 0.384678
-0.087878 0.273828 0.069723
-0.032921 0.022158 0.091339
0.052179 -0.136308 0.241179
0.051918 0.167017 -0.277705
0.015974 0.187194 0.428953
-0.224946 -0.129955 -0.079594
-0.015425 0.161917 -0.323354
0.099618 0.188930 0.406374
-0.091263 0.181677 0.581137
0.129770 -0.105624 0.082094
-0.076001 0.113056 0.549696
-0.220137 -0.088117 0.020969
-0.028321 -0.216544 0.376300
-0.001012 -0.146790 0.456627
0.029054 0.173209 -0.423729
-0.015958 -0.103927 0.287668
-0.242679 -0.116615 -0.022547
0.010728 -0.037036 -0.168796
-0.309885 0.072032 0.582808
-0.054130 0.045776 0.256825
-0.164412 -0.161759 0.397013
0.041121 -0.309013 -0.958201
-0.217993 -0.081425 0.023535
0.039123 -0.310909 -0.956002
-0.038488 -0.211698 0.412706
0.023944 -0.091652 -0.271560
0.033584 -0.186420 -0.612571
0.109274 0.175591 -0.300383
0.068078 -0.076170 0.293783
-0.299278 -0.119356 -0.060491
0.166021 -0.247634 -0.974844
0.016499 0.168035 -0.291737
-0.080718 -0.184545 0.420518
0.024376 -0.243568 -0.956577
0.104069 0.124382 -0.233582
0.084819 0.143534 -0.246044
0.085613 0.270466 0.112843
0.098516 0.262314 0.104617
0.140236 -0.089272 0.246283
-0.024642 -0.180177 0.465689
-0.282372 -0.114453 -0.080753
0.071332 -0.171790 -0.588446
-0.207073 -0.145740 -0.124118
0.052344 -0.134605 0.247043
-0.387400 0.030648 0.492577
-0.196247 0.007811 0.006401
-0.008736 -0.051130 -0.156241
0.186467 -0.036498 0.020821
-0.036583 -0.276095 -0.698778
-0.304327 -0.062175 0.589296
-0.114055 -0.041773 0.048045
-0.033649 0.234182 -0.057018
-0.251513 -0.007402 -0.085829
-0.042188 0.265200 -0.017990
0.152241 0.227936 0.266427
-0.169407 -0.008389 0.039032
-0.043007 0.147359 0.593368
0.168617 0.170379 0.352183
0.190531 -0.159951 0.020522
0.005715 -0.004946 -0.172608
0.079454 0.172549 0.159142
0.119437 0.265068 0.239664
-0.071000 0.165276 0.580373
0.040552 -0.172765 -0.700513
0.255669 0.031277 -0.015665
-0.257011 -0.045561 -0.044883
-0.115525 0.284142 0.553535
-0.023935 -0.129466 0.473056
-0.124157 -0.130842 -0.030739
0.090618 -0.140989 0.113534
0.010239 -0.025008 -0.166619
-0.005757 -0.265723 -0.875120
-0.202142 -0.122700 -0.003788
-0.123948 -0.169525 0.428189
0.077663 -0.113604 -0.379517
-0.003267 0.162265 -0.306564
-0.077395 -0.123893 0.059820
-0.098696 -0.156590 0.446172
0.166405 -0.024169 0.244888
-0.193268 0.058943 0.609364
0.104654 0.248314 0.106167
0.129813 0.230666 0.337016
-0.109505 -0.193951 0.365614
0.096028 0.259795 0.336390
-0.269810 0.000380 0.611459
-0.081807 -0.135646 0.048096
-0.093671 0.193506 0.118191
0.249418 0.042792 -0.013350
-0.170721 -0.153223 0.365867
-0.106985 0.179045 -0.331291
-0.211567 -0.003243 0.004901
-0.097774 -0.167240 0.423373
-0.109583 -0.196074 0.376732
0.064360 -0.155651 -0.527114
-0.155991 -0.152606 0.424092
-0.203092 -0.109892 0.011900
0.063961 -0.163337 0.189376
0.048864 -0.231633 -0.841314
-0.184209 -0.053812 0.046076
0.002308 -0.119873 -0.264513
0.099773 -0.111543 0.246421
-0.117469 -0.149401 0.434983
-0.030766 0.045724 0.132476
-0.086542 0.160430 0.116921
0.098941 -0.268443 -0.969070
-0.091532 0.243366 0.090165
-0.069519 0.164977 0.177357
-0.360975 0.070011 0.550201
-0.052621 0.057413 0.270799
0.078599 -0.158447 0.141409
-0.185547 -0.096373 0.423025
-0.161052 -0.098797 0.054358
0.120199 0.219114 0.363210
0.108769 0.178542 0.406572
0.284987 0.093513 -0.010821
0.194646 -0.094768 0.170791
-0.214703 -0.038043 0.016703
0.011574 -0.033689 -0.151365
-0.022933 -0.064344 0.466678
0.123510 -0.244798 -0.952562
0.066395 0.016486 0.311405
0.070812 -0.338428 -0.952439
-0.106275 0.136382 -0.286661
-0.080360 -0.184795 0.420454
-0.392329 0.090059 0.516668
0.112368 -0.277723 -0.896341
-0.124334 -0.028336 0.479209
0.336823 -0.099922 -0.082760
0.080247 -0.072006 -0.450969
0.126575 -0.266427 -0.778624
-0.046254 0.042275 0.246730
0.031055 -0.138315 0.217724
0.155244 0.039424 0.025245
0.074780 0.151014 -0.253321
-0.033904 -0.283653 -0.694715
0.169350 0.181859 0.341107
-0.008077 0.212476 -0.081152
-0.045136 0.295054 0.065560
0.035875 -0.268203 -0.871353
0.030737 -0.240052 -0.867941
-0.119022 -0.078569 0.481624
0.050006 -0.177569 -0.621674
0.102398 -0.079239 0.271124
0.064263 -0.241421 -0.847483
-0.016423 0.239523 -0.052864
0.077960 0.223870 0.387363
0.008825 -0.031331 -0.162039
-0.188232 -0.140914 -0.017786
-0.078799 0.180603 -0.387687
0.035648 -0.137024 0.226495
0.118983 -0.088353 0.071659
0.290407 -0.120228 -0.021315
0.184181 0.188821 0.306254
-0.070691 -0.174063 0.451042
0.051806 0.161498 0.180906
-0.002857 -0.223590 0.454533
-0.178504 -0.052528 0.050335
-0.042309 -0.219611 0.381550
0.194465 -0.063070 0.025558
-0.294915 -0.007760 0.607644
-0.028214 -0.204717 0.451692
0.053847 -0.191459 -0.631537
0.009038 0.257455 0.017318
0.008605 -0.034282 -0.075453
-0.165113 0.085170 0.555222
0.133843 -0.259804 -0.979049
0.094406 -0.208012 -0.713090
-0.007085 0.000383 0.026610
0.118210 -0.255686 -0.868886
-0.047451 0.103829 -0.218580
0.101359 -0.266651 -0.862721
0.048384 -0.173761 -0.659054
0.060159 -0.119811 -0.441964
0.111100 -0.247204 -0.801796
-0.139729 -0.162377 0.427029
0.244991 0.090380 -0.008983
-0.086719 0.156761 0.133219
0.039209 -0.184204 -0.718124
0.117134 0.180679 0.399963
0.046512 -0.187387 -0.627281
-0.208005 0.062885 0.606602
-0.027324 -0.210186 0.431345
0.080581 -0.119333 -0.487813
-0.083249 0.216591 0.595201
-0.078158 0.255749 0.591664
-0.134747 -0.106478 0.079208
-0.090474 -0.078058 0.476888
0.120219 -0.027426 -0.001600
0.051933 0.266062 0.123950
-0.384369 0.038972 0.511570
0.146586 -0.107604 0.113781
0.218792 -0.059121 0.013513
-0.133833 -0.134059 0.455179
0.244500 0.009306 -0.002473
-0.372240 0.014749 0.505662
0.097629 0.278588 0.089166
0.033651 0.182807 -0.302809
0.185704 -0.047104 0.238672
0.131882 0.199133 0.376975
-0.122476 0.258549 0.572762
0.008043 -0.216796 -0.969617
0.134642 -0.013165 0.270482
-0.087575 0.313441 0.006848
-0.161859 -0.152068 0.418873
-0.080502 0.265506 0.083156
0.133634 0.256008 0.252728
-0.044086 0.210047 0.603829
0.018463 -0.063050 -0.197477
-0.006667 0.249322 0.096953
0.160089 0.216521 0.313292
-0.158108 -0.149844 0.424569
0.021748 -0.101190 0.293224
-0.099447 0.161830 -0.307865
-0.064777 0.175678 -0.339069
0.270854 -0.180033 0.012832
0.377692 -0.090011 -0.106806
-0.004474 -0.133253 0.236147
0.008418 -0.103712 -0.263856
0.053385 -0.057801 0.300310
0.246035 0.044285 -0.012923
0.309216 0.018472 -0.036028
-0.197230 0.062851 0.611996
0.025475 -0.138202 0.224925
0.026984 0.145679 -0.252942
0.157834 -0.010900 0.247475
-0.395824 0.041409 0.485411
0.131547 -0.264486 -0.986013
0.309607 -0.004169 -0.047640
0.234873 -0.052613 0.000890
-0.048243 0.256353 -0.032016
0.050506 0.268095 0.365220
0.139951 0.194181 0.375100
0.020591 0.225681 0.623309
0.016103 0.261259 0.068208
-0.188681 -0.121797 0.012107
0.394443 -0.080026 -0.099612
-0.196767 -0.009602 0.627529
0.026107 0.134934 -0.236917
0.109966 0.262644 0.311948
0.103691 -0.208435 -0.765599
-0.052729 0.139004 -0.265084
0.025584 -0.047859 -0.485391
0.006490 0.258567 0.061944
0.168580 -0.003453 0.032072
0.162207 0.010436 0.032546
0.057707 -0.268484 -0.908043
-0.205072 -0.136338 -0.050603
-0.065540 0.162483 0.580469
0.112741 -0.140204 0.131709
-0.044589 0.171796 -0.351445
-0.016841 -0.218957 -0.981102
0.170193 -0.005715 0.203493
-0.009620 -0.104047 0.457025
0.201368 0.027373 0.014220
-0.164443 -0.080081 0.059157
-0.146235 -0.140508 0.443520
-0.073622 0.183454 0.158724
-0.192492 -0.142610 -0.060852
0.160798 -0.142461 0.029139
0.041297 -0.134220 0.244603
0.007455 0.160968 -0.459085
0.096962 -0.208396 -0.891632
0.108931 -0.237615 -0.889460
-0.068811 -0.164253 0.461429
-0.090429 0.107240 -0.248696
0.053314 0.282884 0.098589
-0.156904 -0.022603 0.058415
-0.244832 -0.117435 -0.026062
0.293380 -0.086871 -0.048376
0.052119 0.174515 0.434090
-0.028459 0.256178 0.082589
-0.090522 0.072030 0.443622
0.153967 0.180709 0.371475
0.161607 -0.239980 -0.971390
-0.125906 0.084944 0.526897
-0.145519 -0.155442 0.429746
-0.002455 0.247468 0.098377
-0.043625 0.268336 0.096274
0.066816 -0.110424 -0.409899
-0.106342 0.278397 0.575339
-0.120572 -0.047381 0.489716
0.360832 -0.051769 -0.112077
0.005869 0.209628 0.625432
0.117258 0.147005 0.418929
-0.088009 -0.166561 0.438736
-0.075160 0.178823 -0.378209
0.302471 0.055934 -0.003802
-0.074701 -0.201710 0.405805
0.086641 0.287284 0.263850
0.106868 -0.280563 -0.765310
0.120851 0.142760 -0.259790
-0.020066 -0.052149 0.451871
0.117864 0.197457 0.389182
0.086601 -0.067251 0.297204
0.104018 0.115315 -0.225016
0.036632 0.126268 -0.221818
0.013262 -0.179440 0.433639
0.057162 0.236919 0.138753
-0.065101 0.096301 -0.219709
0.172469 -0.115696 0.034771
0.055757 -0.115059 0.273832
0.064648 0.192044 -0.384023
0.137139 -0.252039 -0.917225
0.316398 -0.061515 -0.077155
-0.249996 -0.038771 0.619485
-0.223213 0.137576 0.605776
0.068442 0.215139 0.399033
0.076205 -0.199618 -0.746394
-0.364571 0.121019 0.566029
0.224697 -0.054554 0.008688
0.304041 -0.083323 -0.062318
0.033863 0.262921 0.107377
0.085851 -0.045505 -0.468306
-0.252888 -0.116582 -0.023145
-0.050167 0.291405 0.044412
-0.012325 0.227128 -0.066845
-0.040391 -0.210785 0.414501
0.360255 -0.062231 -0.105862
0.023491 -0.137643 0.233223
-0.036578 -0.185157 0.464184
0.170008 -0.041597 0.021630
-0.092907 -0.165293 0.438657
-0.212543 0.066870 0.603174
0.089431 -0.152246 0.203980
-0.129455 -0.031282 0.477482
0.111608 -0.282493 -0.910965
-0.093186 -0.186871 0.412177
0.172992 0.185385 0.341466
0.153269 0.211185 0.253410
0.033338 0.275860 0.352725
0.123729 0.162212 -0.287051
0.001025 0.229072 0.138835
-0.143359 -0.081412 0.097469
0.144979 -0.100847 0.091954
0.030521 0.175488 -0.354136
0.282000 -0.035600 -0.042017
0.092312 0.264284 0.110207
0.098132 -0.196087 -0.685860
-0.015116 0.124449 0.595961
-0.033631 0.037052 0.161588
0.124401 -0.241697 -0.791417
0.033987 -0.100678 -0.314875
-0.015306 -0.097371 0.422788
0.165643 -0.003199 0.222254
0.241431 0.038768 -0.009083
-0.099754 0.278625 0.042130
0.067998 -0.015993 0.317715
-0.031122 0.268146 0.610246
-0.099264 0.097334 -0.252580
0.106485 -0.242069 -0.789217
-0.154047 -0.169099 0.401716
0.102485 0.272490 0.247385
0.010167 0.162294 -0.288542
-0.136909 0.100851 -0.298536
0.024853 -0.133337 0.251713
-0.114162 0.159595 -0.327262
-0.007767 -0.015871 -0.018706
-0.056530 -0.046200 0.486606
0.098110 -0.267338 -0.966164
0.139577 0.165785 0.394606
0.058686 -0.274354 -0.934945
0.098583 -0.276261 -0.890695
0.055253 -0.203278 -0.665345
-0.085926 0.006730 0.439354
-0.279037 0.173841 0.590297
-0.143803 -0.118340 0.454671
0.103268 0.258763 0.100069
0.178627 -0.099803 0.207385
0.099875 -0.269835 -0.975990
0.029085 -0.206794 -0.972130
-0.056568 0.276695 0.007849
-0.070371 0.259311 0.094653
0.023905 -0.015084 0.277860
0.123532 -0.128727 0.162527
-0.106980 0.149254 -0.299970
-0.008713 0.003728 0.030298
0.376691 -0.104173 -0.097649
-0.200454 -0.008008 0.018137
-0.084400 0.076609 -0.220519
0.322471 -0.105962 -0.069469
-0.027598 0.111416 -0.232449
0.028211 0.260305 0.619501
0.281120 0.009155 -0.018259
0.146942 0.182470 0.371751
0.116307 -0.101991 0.075854
0.105165 -0.216559 -0.802290
-0.092269 0.281612 0.056886
-0.011380 0.199645 0.423347
0.012406 0.244156 0.126676
-0.161366 -0.055631 0.441434
0.026696 -0.252673 -0.645712
0.130257 0.185817 0.389168
0.150080 -0.114695 0.039725
-0.079758 -0.152489 0.459047
-0.082166 0.281102 0.070866
-0.065888 0.054268 0.296030
-0.285275 0.170408 0.588359
0.118118 -0.133753 0.129418
0.024904 -0.328226 -0.930683
-0.256807 -0.044813 -0.044693
-0.013870 0.135718 -0.260576
-0.222517 -0.009700 0.629320
0.206432 -0.183851 0.013326
0.157406 -0.013522 0.249211
0.058096 -0.052322 0.297165
0.019393 0.268544 0.366245
0.018885 -0.250748 -0.857464
-0.063524 0.251617 0.105850
0.111093 0.003752 0.280466
-0.007695 0.219653 -0.073577
-0.179413 -0.039407 0.051009
-0.395552 0.041072 0.473039
0.296181 0.052543 -0.034330
-0.053053 0.055783 0.291416
0.035139 0.227013 0.399386
0.158959 -0.096716 0.109026
-0.003861 -0.139364 0.459641
-0.049924 0.178994 -0.404539
-0.005254 -0.008482 -0.024301
0.155129 -0.257332 -0.978033
-0.095082 0.059720 0.567297
0.038032 -0.255269 -0.871885
0.036164 0.177315 -0.373738
0.336350 -0.073826 -0.092672
-0.072274 -0.055916 0.493025
-0.129668 0.102803 -0.301897
0.087014 -0.181216 -0.619799
-0.058760 0.126718 -0.253241
-0.250654 -0.003121 -0.052963
0.158285 -0.072405 0.043658
0.041616 0.189354 0.417150
-0.060021 -0.082766 0.488953
-0.007311 -0.202615 0.459624
0.047704 -0.096763 -0.317144
0.034222 -0.237007 -0.826320
-0.029368 0.136800 0.596843
0.193951 0.006874 0.018948
-0.037422 0.246164 0.382290
-0.097040 0.103811 0.542843
-0.171365 -0.176953 -0.099289
-0.175641 -0.084513 0.437535
-0.002708 -0.155720 0.458030
-0.124033 -0.184727 0.382116
0.276648 0.046108 -0.027686
-0.060377 0.297974 0.072410
-0.243293 0.006803 -0.063332
-0.087601 0.160661 0.131216
0.103412 0.273420 0.081839
0.102533 -0.269487 -0.819974
0.072375 0.180961 -0.296756
-0.070912 0.231732 0.117850
-0.034772 0.189515 0.604533
-0.345150 0.034905 0.558339
-0.051996 0.124987 -0.249310
-0.203156 0.085127 0.574664
0.378343 -0.084183 -0.106950
0.070245 0.263920 0.362858
0.135962 -0.108572 0.215113
-0.222826 -0.064347 0.016522
-0.036750 0.269332 0.017602
-0.111447 0.254693 0.578456
-0.015436 -0.063155 0.440245
0.028216 -0.246645 -0.644894
0.072861 -0.358756 -0.955490
-0.109439 -0.186464 0.358227
-0.098452 -0.165379 0.440230
0.158286 -0.151607 0.025221
0.082708 -0.199554 -0.654708
-0.353514 0.145033 0.575769
0.015971 0.262191 0.065020
0.119257 -0.281353 -0.764727
0.263856 0.100131 -0.011542
-0.096577 0.277828 0.576515
0.069327 -0.162295 -0.539830
0.081348 0.153972 0.434983
0.041210 -0.114841 0.274455
0.082532 -0.155035 -0.552330
0.198703 -0.041843 0.207082
-0.044894 0.293336 0.059994
-0.054820 -0.106710 0.482681
-0.091475 0.079042 0.449582
-0.023728 0.022170 0.086476
-0.005541 0.254046 0.079842
0.070487 -0.132782 -0.482464
-0.130315 -0.123569 -0.052745
0.062988 0.199328 -0.318021
-0.032462 0.171554 -0.463031
0.246065 -0.163239 0.006525
0.249469 0.072803 -0.020774
-0.083472 0.156463 0.115503
0.034313 -0.054944 0.312815
0.089098 -0.165626 -0.590126
0.021193 -0.051752 0.314655
0.140743 -0.098096 0.083344
0.186586 0.182626 0.299211
0.042354 -0.270283 -0.865770
0.018285 0.111160 -0.213836
0.028804 -0.096989 -0.294330
0.078732 -0.114659 -0.485460
0.123809 0.192617 -0.324867
-0.077268 0.055315 0.416045
0.020731 -0.221127 -0.658096
-0.038464 0.042268 0.168048
-0.290121 -0.068769 0.584933
-0.256515 -0.000164 0.616803
-0.198742 -0.022864 0.026115
0.367167 -0.077318 -0.107565
0.340301 -0.041583 -0.099304
-0.041628 -0.243533 -0.999073
0.120614 -0.255321 -0.875571
-0.053391 0.170061 -0.333531
-0.036976 0.032575 0.118416
0.079997 -0.038225 -0.471894
0.057154 -0.190295 -0.694616
-0.091530 0.067303 -0.226261
-0.295244 -0.065661 0.592955
-0.018306 -0.213301 0.395748
0.075138 -0.163371 0.157422
0.143168 -0.002251 0.256000
-0.024365 0.107637 -0.232797
0.056135 0.182509 0.171423
-0.282165 0.015350 0.606033
-0.091787 -0.169905 0.435154
-0.122775 0.256259 0.573044
0.005430 0.229315 -0.060593
0.042898 -0.182720 -0.624666
0.083341 -0.151760 -0.682072
0.007112 -0.211053 0.451871
0.100993 0.273898 0.249500
0.068344 -0.260007 -0.928951
0.165689 -0.098763 0.039814
0.029904 0.225181 -0.045042
0.120627 0.177372 0.404855
-0.044143 0.112014 -0.229504
-0.030442 -0.201165 0.456212
0.341889 -0.060114 -0.098208
0.063731 0.121922 -0.216279
0.178222 -0.172180 0.017408
-0.079615 0.168525 -0.296082
0.039870 -0.101303 -0.284865
-0.010015 0.151553 -0.286377
-0.039197 0.233338 0.130246
0.058664 0.126528 -0.221942
0.215972 -0.135341 0.019206
0.132032 -0.011753 0.272404
-0.298802 -0.000977 0.603906
0.059494 0.192529 -0.309343
0.084220 0.218898 0.139756
-0.001223 -0.186575 0.457751
0.167473 -0.006273 0.195197
-0.000979 0.252174 0.383337
-0.029278 0.032965 0.134449
0.013814 -0.039570 -0.164161
-0.228959 0.079482 0.594629
-0.241843 -0.088235 0.009100
0.162868 0.217774 0.290303
-0.094224 0.075384 0.465558
-0.242377 -0.117597 -0.027715
0.035488 -0.164884 -0.696585
0.122681 0.138360 0.419610
0.166201 0.136021 0.365163
0.055422 -0.193746 -0.663761
-0.083880 -0.186909 0.422142
0.120631 -0.096810 0.073662
0.250371 0.088504 -0.016435
-0.049781 -0.064011 0.488396
0.015401 -0.015985 -0.049077
0.026005 0.244134 0.136346
-0.030253 -0.037631 0.464013
0.012747 -0.186185 0.418146
-0.050573 0.136958 0.580029
-0.102930 -0.163181 0.441764
0.089773 0.169522 -0.291187
0.149703 -0.136761 0.031342
0.077629 -0.169920 -0.632036
0.063928 -0.118697 -0.485572
-0.038020 -0.143913 0.473532
0.196242 -0.039898 0.185306
0.011105 0.075869 -0.188402
-0.119606 -0.186650 0.375536
0.280249 0.101794 -0.018871
-0.063266 0.271782 0.093333
0.321918 -0.119086 -0.056165
0.057683 -0.140307 0.235591
0.052362 0.200133 -0.318875
-0.014607 -0.095567 0.463872
-0.085185 -0.137973 0.007211
0.239522 -0.090195 0.012606
0.141547 -0.088473 0.078495
0.017626 -0.026084 -0.068069
0.065446 -0.272786 -0.959068
-0.053091 -0.207665 0.403771
0.110596 -0.265364 -0.826061
0.271569 0.054561 -0.024990
0.207571 -0.055586 0.018335
0.073260 -0.335999 -0.950509
0.117727 -0.100777 0.239166
0.067003 -0.039542 0.304088
0.328337 -0.075449 -0.086090
-0.055390 -0.218124 0.363556
-0.131234 0.128044 -0.351876
-0.183766 0.008559 0.011218
0.129671 -0.078156 0.265169
-0.098295 0.075532 0.481399
0.051678 0.280193 0.069009
-0.000499 -0.012296 -0.005331
-0.180390 -0.042089 0.049206
0.044509 0.279603 0.608988
-0.219276 -0.122150 -0.171638
-0.151166 0.083150 0.545904
-0.209114 0.070726 0.602132
0.073822 0.035427 0.279612
0.023438 0.160364 -0.271687
0.090659 -0.348197 -0.940280
0.278008 -0.068141 -0.039192
-0.276429 -0.071971 -0.029214
-0.078689 0.156995 0.560478
0.097277 -0.218796 -0.881930
0.056775 -0.071380 -0.457809
0.030242 -0.176799 -0.612612
-0.241362 0.111117 0.599166
-0.021584 0.121935 0.386833
0.093676 -0.058581 -0.465162
0.055391 -0.192356 -0.656804
-0.143027 -0.125444 0.037272
0.187507 0.179775 0.309778
0.027702 -0.091248 -0.288236
-0.316284 0.100682 0.590963
0.090206 -0.191334 -0.643105
-0.052616 0.244303 0.606650
-0.071317 0.181367 -0.336665
0.160301 0.221002 0.296124
-0.161852 -0.137168 -0.044640
-0.102426 0.077973 0.497007
-0.005610 0.271475 0.614099
0.072203 -0.085686 0.291905
0.095295 0.012976 0.287564
0.018545 0.202639 0.419443
-0.020025 0.149749 0.150430
-0.188163 -0.011615 0.028533
-0.296069 0.006583 0.604445
-0.219786 -0.025286 0.005509
0.096381 -0.156913 0.164273
-0.096279 0.158383 -0.300399
-0.073886 0.169935 -0.303403
0.132962 -0.236490 -0.956460
-0.151500 -0.016286 0.053943
0.131778 -0.264376 -0.988031
-0.305717 -0.044167 0.602437
-0.105706 0.118138 -0.272177
0.142820 -0.260738 -0.966545
0.021707 -0.106535 0.289142
-0.039214 0.096688 0.371886
-0.221743 -0.133315 -0.110681
-0.081668 0.204445 0.131056
0.153608 -0.263376 -0.950611
0.064423 -0.092998 0.291435
0.003816 -0.312799 -0.656683
0.130151 0.172791 -0.304664
0.028804 -0.181976 -0.610502
-0.155147 0.005951 0.017342
0.143620 -0.026450 0.268193
-0.121652 -0.114603 -0.064090
0.004577 -0.262351 -0.667808
0.130217 -0.119958 0.159442
0.070378 -0.147447 0.231978
-0.328587 0.007223 0.583424
-0.084200 0.173725 0.146971
-0.056956 0.270985 0.599904
0.064021 -0.249285 -0.842439
-0.076969 0.058361 0.415803
0.130998 -0.090325 0.047432
0.336598 0.001121 -0.061103
-0.142221 -0.101747 0.465834
0.007706 -0.294356 -0.656277
0.090962 -0.148171 -0.682871
-0.021060 0.101489 -0.208115
0.076149 0.160831 -0.275625
-0.310739 -0.116110 -0.059632
0.076857 -0.111365 -0.378733
0.028026 -0.137078 0.227486
0.297102 -0.068603 -0.063163
-0.285774 -0.088640 -0.034468
0.014099 0.174219 -0.363442
-0.003136 0.169187 -0.438172
-0.038208 -0.108914 0.481265
-0.165066 -0.159765 0.402291
0.010514 0.253598 0.101965
-0.134977 0.202118 0.558940
0.065724 -0.194496 -0.682589
0.124724 -0.110456 0.040787
0.002576 0.005115 0.255458
0.071221 0.275455 0.341612
0.018006 0.143074 -0.251519
-0.207380 0.163717 0.599691
0.038557 0.182776 -0.357876
-0.257955 -0.112469 -0.126408
0.054705 0.213864 0.153261
0.196665 -0.034187 0.196592
-0.065517 0.221204 0.130022
-0.151039 -0.034498 0.067722
-0.098983 0.271996 0.019744
0.015597 -0.034108 -0.111095
-0.273102 -0.063855 -0.038873
-0.055865 0.269092 0.602169
0.242380 0.039823 -0.009895
-0.065549 0.265007 0.096937
0.179790 -0.016305 0.184237
-0.031331 0.037658 0.215395
-0.357697 0.129333 0.575925
0.299258 -0.092012 -0.051556
0.046098 -0.118815 0.268416
-0.392518 0.060490 0.502051
-0.321542 0.093880 0.585792
-0.086642 0.186723 -0.356096
0.170373 -0.077021 0.248994
-0.013696 0.191807 0.158623
0.002672 -0.133103 0.252067
0.152399 -0.103836 0.216454
0.056033 0.111163 -0.204628
-0.292336 0.161767 0.588972
0.021191 0.174114 -0.412511
0.022593 0.276527 0.340484
-0.122449 0.173903 0.565973
0.113755 -0.135427 0.187925
-0.098714 0.206316 0.101388
0.391873 -0.076041 -0.103163
0.052988 -0.064417 0.305621
0.013954 0.168626 -0.316478
0.353726 -0.110627 -0.067486
-0.009116 -0.112619 0.461011
0.140975 -0.034671 0.270503
0.054921 -0.161751 -0.624106
0.137580 -0.107557 0.210393
-0.172088 -0.148680 0.412487
0.020501 -0.059859 -0.191097
0.159061 0.182276 0.375301
0.014576 0.259556 0.025268
-0.337826 0.135061 0.596164
-0.176462 -0.152063 0.395598
-0.051297 0.269310 0.096963
0.032320 0.175820 -0.374126
-0.013759 -0.266408 -0.681491
0.128391 0.037251 0.028001
0.063460 -0.246481 -0.875327
-0.298312 0.173193 0.583640
0.083477 -0.157755 -0.567473
0.218400 -0.163871 0.013479
0.330858 -0.021455 -0.092586
-0.054339 0.050862 0.302749
0.043472 -0.138742 0.225556
-0.193911 -0.110860 0.414840
-0.105229 -0.169880 0.434696
0.105511 0.012699 0.278736
0.001158 0.038467 -0.189274
-0.193932 -0.156851 -0.087470
0.074333 0.202354 0.406118
-0.050785 -0.064795 0.488870
0.100325 0.122662 -0.229843
0.279388 -0.150710 0.008770
0.042494 -0.246750 -0.944701
0.064139 -0.239530 -0.872883
0.215071 -0.165673 0.014070
-0.134752 -0.052466 0.049207
0.080552 0.166872 -0.284303
-0.382629 0.025253 0.503316
0.072287 0.190131 0.416808
0.040924 -0.031334 -0.477623
-0.056182 0.086771 0.558428
0.028877 -0.224701 -0.694663
-0.039458 0.258817 0.609572
0.165105 -0.120061 0.036030
0.077362 -0.195578 -0.699829
-0.146467 -0.167083 0.415861
-0.122870 -0.119093 -0.069939
-0.310282 0.048763 0.587211
-0.110626 0.144216 -0.300406
0.074716 -0.028237 -0.478682
0.131865 -0.118614 0.120880
0.069382 0.203215 -0.324405
0.148941 0.190414 0.369881
-0.090107 0.080369 -0.229214
0.061264 -0.349027 -0.957512
0.096167 0.132468 0.434966
0.037943 0.265787 0.105819
0.036956 0.181084 0.411084
0.098825 0.269338 0.096443
0.153666 -0.103332 0.216471
-0.365904 0.078980 0.552721
0.125581 -0.125334 0.146648
-0.031337 -0.238437 -0.702597
-0.035215 0.035353 0.220575
0.021134 0.263907 0.089301
-0.088816 0.307003 -0.000369
-0.003348 0.270807 0.357202
0.003235 -0.241754 -0.678970
-0.079409 0.050081 0.572316
0.102617 -0.075281 0.277464
-0.011113 0.250333 -0.033001
