0.001637 -0.210718 -0.436098
-0.066661 -0.378869 0.395826
0.105793 -0.049703 0.100863
-0.019076 0.109804 -0.521634
-0.048274 -0.461946 -0.196730
0.040278 -0.169519 -0.368906
-0.043435 -0.286496 -0.280377
-0.157807 -0.350470 -0.051233
-0.128598 -0.021161 -0.512815
-0.305697 0.446513 -0.102247
0.081895 -0.163715 -0.358918
-0.178217 0.104845 -0.236101
-0.032543 -0.260691 0.238701
0.526602 0.043598 0.362224
0.195149 -0.076541 -0.040638
-0.133526 -0.502842 0.339995
-0.010305 -0.011587 -0.457522
0.230402 0.040756 0.117418
-0.140116 -0.192502 -0.646420
-0.113499 -0.251094 0.351050
-0.341773 0.453270 -0.077390
0.416986 0.095259 0.275415
0.532412 0.006597 0.412267
-0.075766 0.811235 0.278511
-0.049839 -0.209943 0.044646
-0.306581 0.502443 -0.102697
0.343289 0.068146 0.417168
-0.005794 -0.271881 0.237079
0.108654 -0.056696 0.061637
0.377625 -0.113536 0.059079
-0.049851 -0.362212 0.049859
-0.032561 -0.191499 0.056698
0.015680 -0.013860 -0.590181
-0.110057 0.426746 -0.027669
-0.035825 -0.460959 -0.222805
-0.140453 -0.316867 0.168436
-0.038337 -0.328543 -0.127189
0.054365 0.014668 -0.222385
-0.129237 -0.407992 0.065021
-0.014644 -0.440468 0.426997
-0.066481 0.695862 0.307826
-0.131949 -0.416238 0.233758
-0.153747 -0.494353 0.342398
0.114340 -0.378744 0.173124
-0.054599 0.029081 -0.591132
-0.139067 0.650152 0.135225
-0.110279 -0.303186 -0.511799
-0.255740 0.384347 -0.180554
-0.225069 -0.298773 -0.386205
-0.213150 0.663139 -0.072384
-0.156915 -0.294763 0.350844
0.110130 -0.047364 -0.109788
-0.039986 -0.489102 0.452182
-0.013149 -0.147802 -0.452024
0.047261 0.159028 -0.529805
-0.054768 -0.377768 0.298560
0.169103 -0.026723 0.065936
-0.061757 -0.024559 -0.451056
-0.195759 0.653808 -0.057732
-0.124199 -0.432137 0.229519
0.151290 -0.166157 -0.283791
0.321004 -0.057048 0.322985
0.141895 -0.009120 0.095208
-0.193173 0.013026 -0.384008
0.411353 0.021582 0.362162
0.022793 -0.161546 -0.461445
-0.039950 -0.138495 -0.111179
-0.044844 0.070339 -0.661547
0.079197 -0.410490 0.486103
0.071307 -0.112292 -0.308616
-0.142621 -0.278237 0.329753
-0.083957 -0.402949 -0.196499
0.094494 -0.434819 0.288826
0.012631 -0.246520 0.472212
0.175609 -0.162252 -0.197705
-0.236118 0.513552 -0.281345
0.097316 -0.212576 0.014264
-0.011643 -0.501144 0.414109
-0.103396 -0.474707 -0.180168
-0.020586 -0.136521 -0.115085
-0.104823 0.785978 0.278841
0.163485 -0.080492 -0.089426
-0.134352 -0.242098 0.344160
-0.143706 -0.461448 0.050076
-0.138197 -0.338605 -0.063803
-0.055337 0.488211 -0.148121
-0.291925 0.477221 -0.092477
-0.116451 -0.326139 0.407833
-0.138948 -0.305371 -0.053928
0.033542 -0.245685 -0.063696
0.029688 0.031328 -0.671418
-0.138343 0.078085 -0.510122
-0.055832 -0.389488 0.299469
-0.152630 -0.447468 0.230959
0.241331 0.064087 0.132237
0.533265 0.004610 0.409869
0.450302 0.072317 0.372021
-0.018249 -0.176111 -0.085608
-0.113398 -0.345582 0.524825
-0.076588 -0.242354 0.063120
-0.019089 -0.141014 -0.108986
-0.220427 -0.259000 -0.363337
0.343407 0.098581 0.245158
-0.247395 -0.075707 -0.371598
0.372312 0.126042 0.306882
-0.205758 0.467902 0.029569
-0.052796 -0.156850 -0.513132
-0.075710 -0.482110 0.334187
-0.067821 -0.381274 0.430681
0.071250 -0.429232 0.284964
-0.178131 0.013702 -0.397928
-0.147879 -0.355710 -0.051504
-0.229608 0.496609 0.035704
0.092450 -0.425348 0.261234
0.307346 -0.023701 0.365224
-0.121252 0.837950 0.281245
0.082608 0.025688 -0.064174
-0.106535 0.359286 -0.382566
0.431001 -0.163269 0.286112
-0.016063 0.494562 -0.138346
0.127931 -0.256297 -0.003553
-0.226661 0.307993 -0.086184
0.033501 -0.374347 -0.326516
0.268236 0.069445 0.118219
-0.145274 0.590743 0.019099
0.267341 -0.137446 0.189780
0.089690 -0.433199 0.287118
-0.100196 0.751961 0.302775
-0.073261 0.000501 -0.768708
-0.036362 -0.477129 -0.203467
0.020698 -0.465789 0.203567
-0.084042 0.749247 0.094470
0.226054 0.057994 0.145843
0.098996 -0.437680 0.294250
-0.045837 -0.278708 0.453267
-0.089368 -0.286198 0.529681
-0.143172 -0.333685 0.158918
0.029315 -0.408636 -0.015834
0.050382 -0.337289 0.108455
-0.009167 -0.456541 0.423611
-0.007255 -0.249659 0.038191
0.400262 0.014878 0.301759
0.158167 -0.073012 0.039172
0.013375 -0.414542 -0.262770
0.312222 0.005851 -0.060201
0.517361 0.098372 0.392849
-0.076654 0.405258 -0.031062
-0.135006 -0.444245 -0.189923
-0.122575 0.502524 0.126055
0.032290 -0.345567 0.113459
-0.139012 -0.398569 0.439038
-0.000317 -0.280566 0.229387
-0.213452 0.590749 0.175474
-0.122560 -0.153244 -0.254300
0.257840 0.113037 0.096313
0.002594 0.677440 0.304389
0.335528 -0.014311 0.418273
0.369552 -0.155998 0.042762
0.478579 0.066039 0.383005
-0.211035 0.571092 0.180272
0.013239 -0.184132 0.046269
-0.040215 -0.323860 0.027476
-0.008332 0.622594 -0.005149
-0.183621 0.509563 0.024117
-0.046015 -0.314475 -0.541827
0.250768 0.105944 0.236064
0.235833 -0.062459 0.012637
0.282023 0.078754 0.251944
0.080152 -0.152392 -0.319119
0.328697 -0.017863 0.433247
-0.058584 -0.382603 0.411897
-0.051766 0.655676 0.323427
0.116071 -0.062619 0.070436
0.412873 -0.037709 0.383946
-0.207266 0.350134 -0.162140
-0.185121 -0.451967 0.233086
0.049992 -0.010427 -0.071779
-0.103165 -0.039765 -0.413635
-0.170915 0.475619 0.018271
-0.188286 0.676675 -0.018846
-0.119953 0.546673 0.111584
0.084364 -0.204532 -0.369701
-0.062063 -0.474880 0.441769
-0.194588 -0.411530 0.238573
0.411708 -0.124825 0.290123
-0.243859 0.777714 0.186576
-0.144190 -0.207951 -0.212473
-0.248342 0.484000 0.040386
0.116989 -0.374109 0.157179
-0.100228 -0.242334 -0.240231
0.322263 0.003063 0.328533
0.443891 -0.170319 0.283321
-0.184554 0.405362 -0.259626
0.054582 -0.430581 -0.256583
-0.105772 -0.356187 0.173926
0.257528 0.077396 0.224835
-0.261428 0.651348 0.065131
0.385499 0.149313 0.304959
-0.134461 0.065392 -0.527196
0.366558 0.040928 0.374461
-0.249793 0.339069 -0.125321
-0.050697 -0.381859 0.313748
-0.254639 0.626339 0.085689
0.015202 -0.424704 -0.020328
-0.275361 -0.278613 -0.348270
-0.156739 -0.157954 -0.206600
0.058386 0.056709 -0.068219
0.115284 -0.232322 -0.009043
-0.115297 -0.357988 0.174233
0.113982 -0.164425 -0.253447
0.002139 -0.119655 -0.142549
0.001557 -0.210189 -0.078971
0.378399 0.065347 0.288489
-0.065241 0.802619 0.239839
0.070366 -0.419767 -0.259135
0.089924 -0.083254 -0.311591
0.133441 -0.064570 0.028008
-0.030828 -0.210603 0.063179
0.019695 0.110656 -0.535737
-0.025814 -0.214343 0.074991
-0.084066 0.517224 0.100364
0.029767 -0.400200 0.488251
-0.123536 0.066445 -0.536751
0.359354 -0.166114 0.040101
-0.126725 -0.427502 0.056420
-0.145194 0.795074 0.300619
-0.001054 -0.398018 -0.284653
0.374748 0.002192 0.235856
-0.165160 -0.147140 -0.624470
-0.036905 -0.272890 0.259480
0.478978 0.105059 0.395308
-0.140188 0.596348 0.022964
-0.318704 0.677296 0.055368
-0.205026 0.549608 -0.290631
-0.123610 -0.323455 0.506143
0.038079 -0.384515 0.276576
-0.183166 -0.301933 0.156983
-0.005074 0.182978 -0.544702
-0.162717 -0.366580 0.193194
0.308966 -0.134538 0.195103
0.480784 -0.038773 0.182612
0.244535 0.053246 0.129267
-0.005920 -0.251734 0.426027
0.027218 -0.207435 -0.477499
-0.045799 -0.352163 -0.017333
-0.247515 0.486975 0.014323
-0.182439 -0.332471 -0.062989
0.271048 0.021820 0.222553
-0.140512 0.683467 0.168179
-0.279575 0.629531 0.068727
-0.148689 -0.469387 0.360247
-0.237763 -0.298592 -0.384923
0.348533 -0.015837 0.446698
-0.107122 -0.480624 0.347453
-0.160251 0.522933 -0.073696
0.235603 -0.153689 -0.174206
-0.235436 -0.275253 -0.367683
0.002450 -0.289996 0.215588
-0.097015 -0.503108 0.367498
-0.109038 -0.313876 -0.060824
0.515990 -0.006355 0.422244
0.082523 -0.370390 0.136643
-0.255706 0.620344 0.074147
0.175575 -0.084205 -0.067389
-0.047087 -0.374326 0.094747
0.356337 0.045991 0.377232
0.039554 -0.169690 -0.364806
-0.163480 0.496835 -0.107083
0.291525 -0.031149 0.091251
-0.295601 0.650438 0.062692
0.064455 -0.262563 -0.092653
-0.132233 -0.108005 -0.267473
-0.128962 -0.248368 0.357603
0.337943 0.078856 0.384987
0.012465 -0.226823 -0.448907
-0.235979 0.487124 0.006308
-0.156788 0.572602 -0.007458
0.526563 0.029288 0.347588
0.391159 0.005685 0.305166
0.346760 0.018435 0.234766
-0.192394 0.465323 0.014581
-0.041458 -0.433703 -0.219540
0.230746 0.018738 0.116458
-0.046350 -0.379052 0.135693
-0.095047 0.481385 -0.035878
0.072205 -0.084310 -0.201279
0.493759 -0.057170 0.183976
-0.019095 -0.200024 0.094766
0.473958 -0.039665 0.185150
0.043882 -0.079588 -0.243247
0.396599 -0.000986 0.411345
0.047133 -0.417453 -0.010936
0.361019 -0.008553 0.207294
-0.068722 -0.019513 -0.711659
-0.118808 -0.165536 -0.260230
0.124949 -0.002074 0.099133
0.005453 -0.303703 0.219247
-0.084154 0.023130 -0.797735
-0.194890 0.671203 0.324703
-0.062705 -0.508604 0.445829
0.140426 -0.064610 0.067127
0.359232 -0.153473 0.042228
0.057628 -0.232761 -0.393204
-0.042397 -0.339500 -0.059597
-0.127488 0.522003 0.125654
0.028345 -0.214665 -0.481163
0.317667 0.057453 0.248918
0.099505 -0.035631 -0.107052
-0.106787 0.695263 0.293001
0.029599 0.001959 -0.609013
-0.268516 0.370640 -0.179466
-0.234814 0.652467 0.178309
0.285177 -0.069519 -0.096949
0.488553 -0.000977 0.413939
-0.055880 0.561585 -0.012559
-0.059590 -0.326699 -0.528324
-0.122210 -0.307548 0.512737
-0.144205 -0.514427 0.328937
-0.044016 -0.503280 0.472733
-0.114388 0.438494 -0.020614
-0.288009 0.311207 -0.251624
0.366882 0.058878 0.399419
0.431589 0.115969 0.263440
-0.059554 -0.040830 -0.460638
-0.151163 0.648902 0.138871
-0.152978 0.140318 -0.255587
-0.064316 -0.382052 0.362231
-0.052160 -0.292988 0.239317
-0.191333 -0.439182 0.071264
-0.167761 0.460746 -0.160549
-0.125908 0.731159 0.288552
-0.061129 0.049600 -0.969527
-0.167684 0.753346 0.183222
-0.033932 -0.259935 0.247946
-0.026103 -0.174160 0.061042
-0.005619 -0.209941 -0.058694
-0.067094 -0.009710 -0.745475
-0.059944 -0.283735 0.460759
-0.160453 0.608708 0.048355
-0.102846 0.695672 0.098649
0.022050 -0.399481 0.486645
-0.042417 0.628290 0.179075
0.343520 0.007866 0.413838
0.036132 -0.009674 -0.218217
-0.072128 0.612640 0.038437
0.057238 -0.429139 -0.256212
-0.053069 -0.349250 -0.527479
-0.261873 0.351173 -0.122532
0.054800 0.008832 -0.086852
-0.051716 -0.376736 0.283038
0.340735 0.061608 0.250000
-0.109341 0.780725 0.274654
-0.236681 0.474064 0.038387
0.046703 -0.319570 0.376434
-0.057719 -0.370983 0.483619
-0.043359 -0.362362 0.006807
0.416681 -0.107715 0.279424
-0.258816 0.687865 0.084101
-0.175445 0.628178 -0.060635
-0.096995 -0.254339 0.352994
-0.146759 -0.322528 0.409649
-0.211778 0.308397 -0.125036
-0.050602 -0.376064 0.217200
0.001539 -0.253462 0.034258
0.003458 -0.234739 -0.081350
-0.062075 -0.463337 -0.180131
0.433185 -0.098745 0.265026
-0.167954 0.710405 0.338487
-0.169833 0.436851 -0.182532
0.062515 -0.380866 0.132090
-0.072971 0.524624 -0.158924
-0.010960 -0.160676 -0.108116
0.096635 -0.388542 0.261666
0.548019 -0.003518 0.356513
0.192125 -0.164397 -0.192286
0.064541 -0.316156 0.372331
-0.147958 -0.227038 -0.201344
-0.087698 0.723602 0.294965
0.395819 0.028502 0.276765
-0.214470 0.154842 -0.280969
0.001583 -0.365057 -0.299894
-0.222075 0.296377 -0.106144
-0.065545 -0.386869 0.222029
-0.050681 -0.525840 0.471141
-0.023136 0.064874 -0.366515
-0.198474 -0.268351 0.421041
-0.093199 0.301683 -0.396150
-0.032452 0.474795 -0.167245
-0.014752 -0.181181 -0.141209
-0.059888 -0.098508 -0.596923
0.460944 0.013446 0.410210
0.451921 0.102641 0.375826
-0.054007 -0.383584 0.338304
-0.086348 0.481620 -0.175987
0.226391 -0.144105 -0.169495
0.108682 -0.383713 0.144295
0.489323 0.019884 0.341326
0.329605 -0.033010 0.332919
-0.210267 0.784870 0.168726
0.012657 -0.367232 0.110169
0.481560 0.054331 0.387462
0.274365 -0.043674 0.069255
-0.190735 0.455350 -0.000206
-0.132117 0.672621 0.163852
-0.112160 -0.055106 -0.465566
0.444104 -0.122419 0.255552
-0.086530 0.595613 0.019738
-0.092303 0.697317 0.311994
-0.197443 0.656581 0.065875
0.121954 -0.248192 -0.007325
-0.190642 0.038645 -0.538844
0.116985 -0.378032 0.169620
-0.040155 -0.047691 -0.462260
-0.044871 -0.369512 0.130120
-0.192512 0.626012 -0.058785
-0.015989 -0.125791 -0.144085
-0.119935 0.009115 -0.418731
-0.045932 -0.371678 0.076599
-0.117828 -0.180596 -0.231751
-0.113960 -0.253087 0.349597
-0.099257 0.434897 -0.018370
0.183649 -0.213555 -0.059032
0.233551 0.019280 0.117309
-0.084779 0.520589 0.133188
-0.064133 -0.467815 0.448809
0.012106 -0.372234 0.487249
-0.035473 -0.244251 0.243830
0.085812 -0.098762 -0.307578
-0.236008 0.616843 -0.050803
0.030819 -0.386710 0.267887
0.529501 0.041553 0.345825
-0.291559 0.326032 -0.139642
-0.117624 0.001005 -0.467002
-0.153444 0.664517 0.322624
0.414443 0.025715 0.356636
-0.081798 0.723223 0.290319
-0.040408 0.056990 -0.349878
-0.051091 0.072700 -0.655864
-0.059018 0.570661 0.003491
-0.249445 0.269591 -0.283824
0.067848 -0.246728 -0.051403
0.165753 -0.112031 -0.076923
0.024379 -0.282102 0.204448
0.427422 -0.150646 0.283173
-0.083659 0.571986 0.021327
-0.099371 -0.390281 0.226714
-0.025984 -0.367844 0.350096
0.044709 -0.275768 -0.102356
-0.150695 -0.229404 -0.205834
-0.147417 -0.176554 -0.212649
-0.088360 0.753568 0.092189
0.061988 -0.092953 -0.194588
-0.130245 -0.468706 0.038417
-0.074474 0.556028 0.101379
0.023051 -0.023935 -0.064266
0.104639 -0.352298 0.410200
-0.044695 -0.201110 0.041807
-0.068363 0.717349 0.313279
-0.089498 -0.005274 -0.560217
0.395640 -0.014246 0.178208
0.045885 -0.077569 -0.234253
-0.159978 0.489366 0.028448
-0.135390 0.678641 0.286615
0.027601 -0.249310 0.242087
-0.165694 0.153773 -0.278405
-0.076422 0.728112 0.088555
0.025912 -0.359387 -0.330758
-0.155520 -0.401221 0.453822
-0.118115 -0.447185 0.053673
-0.071394 -0.357224 -0.485916
0.562653 0.018278 0.346795
-0.107655 -0.441261 0.354169
0.324391 0.000360 0.331085
-0.049716 0.234578 -0.390625
0.361596 -0.019102 0.181756
-0.227286 0.459692 -0.100279
-0.190325 -0.160462 -0.616844
0.158584 -0.048209 0.063147
0.455596 -0.046003 0.179002
0.418929 -0.169847 0.056281
-0.046605 0.749321 0.219653
-0.192327 -0.323839 0.395937
0.026119 0.080828 -0.085637
0.463864 0.068889 0.371814
-0.067556 0.433813 -0.017829
0.418599 -0.010463 0.176381
0.448699 -0.161313 0.276843
-0.093173 -0.283741 0.509749
0.027716 -0.448174 -0.024686
-0.023550 0.193423 -0.549132
-0.257273 0.384885 -0.180751
-0.173754 -0.326330 0.403653
-0.002790 -0.211426 -0.071461
-0.085533 0.525708 0.101191
0.523384 -0.043128 0.175224
-0.282799 0.338414 -0.158724
-0.245618 0.360263 -0.153153
-0.041870 -0.501270 0.428620
0.341724 -0.018010 0.340441
-0.278675 0.343074 -0.167381
0.050932 -0.380943 0.370925
-0.152825 0.096332 -0.503935
-0.064715 -0.430901 -0.193850
-0.166853 0.188531 -0.401381
0.068057 -0.432033 0.000898
-0.029803 0.205596 -0.422667
-0.077406 -0.266445 0.296273
-0.139213 -0.338192 0.158766
-0.064616 0.583695 0.017218
0.362216 0.069825 0.381859
-0.121618 -0.305124 0.328643
-0.125699 -0.165534 -0.209037
0.067852 -0.394015 0.501074
0.381405 -0.122931 0.263218
-0.054177 -0.381886 0.201897
-0.104494 -0.238116 0.348595
-0.151939 0.754593 0.178438
0.236903 -0.160648 -0.203857
-0.093902 0.430577 -0.015746
0.105902 -0.153340 -0.281976
-0.240335 0.479164 0.051935
-0.156736 0.158496 -0.423682
-0.049182 -0.276536 0.455375
-0.054967 -0.386809 0.292371
0.086613 -0.355706 0.415840
0.017171 -0.227159 0.022604
-0.282352 0.312659 -0.248054
-0.057526 -0.386437 0.295308
-0.048567 -0.448809 -0.206715
-0.238260 -0.071020 -0.372729
0.002399 0.039802 -0.260126
-0.141126 -0.289389 0.389873
-0.162460 -0.408133 0.229746
0.320523 -0.031998 0.314095
-0.101454 -0.053070 -0.451807
-0.162916 -0.301038 -0.361745
0.037371 -0.401918 0.512217
-0.070670 0.051524 -0.881432
-0.132616 0.797559 0.288672
-0.185745 0.650209 -0.053894
-0.173301 0.551711 0.003516
0.103648 -0.223022 -0.344248
-0.192558 -0.403263 0.075794
-0.256276 0.617006 0.049209
0.047341 -0.428783 -0.257943
0.083687 -0.405474 0.267772
0.020379 -0.147446 -0.453792
-0.126442 0.716064 0.253887
-0.240357 0.798579 0.168168
-0.163145 -0.457633 0.472834
-0.151222 -0.473120 0.067163
-0.148204 0.039777 -0.525765
-0.078498 0.349013 -0.326454
-0.048879 -0.495476 0.174715
-0.064251 0.723418 0.292999
0.007787 -0.117490 -0.142447
0.052408 -0.407841 0.108337
0.016428 -0.373794 0.505813
-0.161924 -0.062855 -0.255701
-0.006163 -0.251419 -0.051293
-0.272137 0.289790 -0.287647
-0.159996 -0.368000 0.148377
-0.056960 -0.382853 0.390943
-0.060013 -0.387011 0.439894
0.016625 -0.411659 0.462453
-0.043222 -0.358344 0.485473
0.020017 -0.471361 0.209544
-0.001700 -0.409224 -0.288424
-0.151777 -0.459241 0.062335
-0.215589 0.296704 -0.116191
0.314220 -0.037472 0.347889
0.379248 -0.129059 0.058757
-0.194010 -0.085096 -0.373511
-0.142591 -0.130006 -0.265906
-0.016359 -0.175756 -0.087671
-0.085247 -0.483733 0.334897
-0.061848 -0.467991 0.451434
-0.133042 -0.263323 0.517695
-0.058697 0.828599 0.239311
-0.114508 -0.337162 0.507095
-0.179335 -0.450480 0.454340
-0.055451 -0.320039 -0.533519
0.323206 -0.113852 0.176423
0.285477 -0.012779 -0.074783
-0.192509 -0.432543 0.422298
-0.151900 -0.306713 0.184403
-0.139818 -0.457846 0.049250
0.357748 -0.017639 0.396121
-0.180486 -0.447481 0.227351
-0.039345 -0.313946 -0.544445
0.084547 -0.188758 -0.038766
0.017208 -0.350674 -0.314973
-0.283693 0.437122 -0.104929
-0.191136 -0.465257 0.044563
-0.064437 0.654978 0.277657
-0.325549 0.492118 -0.114655
-0.100643 -0.030184 -0.460430
-0.010393 -0.285025 0.452927
-0.016400 -0.251436 -0.056253
-0.167771 -0.473384 0.042382
0.056440 -0.386917 0.365485
0.224859 0.014394 0.112158
0.004792 -0.217782 0.074148
-0.099493 -0.364665 0.174805
-0.059180 -0.377066 0.446811
-0.264884 0.483408 0.027631
0.353897 -0.183095 0.034644
-0.239431 0.445569 -0.114751
-0.036342 -0.383537 0.247931
-0.170006 0.668215 -0.012890
-0.091699 0.484104 -0.033731
-0.143385 0.679174 0.282419
-0.137218 -0.417321 0.234868
0.147501 -0.093182 -0.313337
-0.002841 -0.241159 -0.060381
0.113054 -0.374246 0.168562
-0.054445 0.833147 0.249066
0.333956 0.065399 0.250092
0.497655 0.036216 0.418993
-0.077104 -0.357447 -0.499106
-0.186419 -0.382397 0.212400
-0.056307 0.062863 -0.943411
-0.063035 0.781131 0.234148
-0.241152 0.443748 -0.117682
-0.225349 -0.344093 -0.031257
-0.253697 0.497510 0.033450
-0.042546 -0.309030 -0.533302
0.486152 -0.002231 0.155552
-0.198474 -0.472676 0.039922
-0.157863 0.157581 -0.427732
-0.025565 -0.123632 -0.145654
0.063014 -0.404086 0.098204
-0.075349 -0.338659 -0.079130
-0.165460 -0.427080 0.230473
-0.046665 -0.081970 -0.305609
0.451106 -0.131989 0.252335
-0.059674 0.249323 -0.405886
-0.154217 0.153599 -0.275028
-0.125695 0.524609 0.095411
0.051182 -0.418179 -0.011254
0.064303 -0.248850 -0.039199
-0.166142 -0.451434 0.489785
0.359785 -0.024063 0.415957
-0.016847 -0.267221 0.436032
-0.130345 -0.365720 -0.077117
-0.009788 -0.126337 -0.143484
-0.042954 -0.275955 0.051949
-0.108301 0.798619 0.283487
0.025712 -0.250959 0.235196
-0.111563 -0.028912 -0.508750
-0.034791 -0.382357 0.533176
-0.081945 0.058397 -0.774892
0.027127 -0.012192 -0.215799
-0.001782 -0.316534 0.421082
-0.153991 -0.424647 0.462247
0.020504 -0.253959 0.254073
0.075742 -0.384030 0.261085
0.272221 -0.050736 0.063267
-0.270171 0.654057 0.066651
-0.261174 0.624654 0.068619
-0.057678 -0.220733 0.053810
-0.024623 -0.064631 -0.351969
0.457062 -0.102851 0.278173
-0.175029 -0.434491 0.071241
0.419100 -0.094699 0.391691
0.517097 0.014941 0.423558
-0.070279 0.221869 -0.412371
-0.086634 -0.242901 0.060915
0.012266 -0.230397 0.026147
0.160062 -0.086425 -0.083260
0.410715 -0.125535 0.291640
-0.222985 -0.054571 -0.365392
0.067748 0.023830 -0.080112
-0.076066 0.087125 -0.608301
-0.082189 0.494389 -0.033258
0.256787 -0.052813 0.035206
-0.065920 0.067884 -0.590282
-0.010883 -0.261251 0.232746
0.410461 0.023023 0.362297
0.082122 -0.164252 -0.358188
-0.040732 0.042903 -0.353870
0.387517 -0.140931 0.069451
0.015916 -0.165681 -0.456478
-0.053371 0.449281 -0.033268
0.457921 -0.052295 0.391326
-0.028073 -0.195571 -0.128183
-0.037887 -0.326572 -0.129613
-0.024365 -0.399365 0.519959
-0.050123 -0.318531 -0.151751
0.309550 -0.011825 -0.059706
0.228706 -0.131247 -0.155696
0.054768 0.005142 -0.471331
0.464622 0.104099 0.378404
0.029028 0.020376 -0.604488
-0.215065 0.631662 0.059162
-0.105985 0.003384 -0.509398
-0.095139 -0.171436 -0.244741
-0.013601 -0.206645 -0.096302
-0.037991 -0.510714 0.461653
0.044934 -0.430734 0.011181
-0.161451 -0.425450 0.231762
-0.257193 0.617328 0.088251
0.111186 -0.206977 -0.346255
-0.210002 0.309830 -0.129607
-0.019426 -0.259073 0.236607
-0.063891 -0.382027 0.473287
-0.143434 -0.308214 0.321690
-0.212125 -0.208762 -0.392159
0.153791 -0.144651 -0.067602
0.466729 -0.060962 0.183467
0.199457 -0.211957 -0.066637
-0.116596 -0.170479 -0.228695
0.513456 -0.015593 0.154438
-0.185046 0.622267 0.055578
-0.261932 0.492663 0.041787
-0.144873 -0.006888 -0.402208
-0.085224 0.038785 -0.759634
0.302423 -0.047988 0.331961
0.311736 -0.180929 0.189585
-0.078951 0.469687 -0.183068
-0.161347 0.666611 -0.059688
-0.052826 0.046672 -0.927472
-0.142299 0.040572 -0.401841
0.408594 0.159026 0.295850
0.314984 0.095155 0.245743
0.370760 0.067841 0.278966
0.137274 -0.182298 -0.048421
-0.172393 0.198696 -0.382315
-0.198192 0.659217 -0.057392
-0.164669 0.534462 -0.286727
-0.026117 -0.517434 0.191211
-0.170049 0.715879 0.304767
0.017753 0.606137 0.035686
-0.053136 -0.382200 0.269065
0.061359 -0.154400 -0.378072
0.345787 0.088001 0.367681
-0.076069 -0.035450 -0.470746
0.047881 -0.318167 0.365644
-0.178694 0.725248 0.301018
-0.116999 -0.141678 -0.611038
0.192677 -0.080528 -0.046410
-0.150891 0.343100 -0.367878
0.029785 -0.383781 0.383275
0.479200 0.014066 0.172629
-0.050932 -0.381087 0.329713
-0.228701 0.509969 -0.272554
-0.020058 -0.290112 0.443396
0.383624 -0.010372 0.410078
-0.013595 -0.412704 -0.303410
-0.045157 -0.266524 0.065835
-0.017932 0.196460 -0.559852
-0.097203 0.414848 -0.024556
0.088207 -0.358836 0.138966
0.097588 -0.399419 0.142201
-0.292022 0.656580 0.065565
-0.282279 0.251866 -0.297314
0.118171 -0.165017 -0.319304
-0.280804 0.440263 -0.083252
-0.204699 -0.470093 0.210659
0.029891 -0.286463 -0.116406
-0.160243 -0.163753 -0.628348
-0.060957 -0.442082 0.534333
-0.122576 -0.448502 -0.169331
0.405172 0.098522 0.281228
-0.026311 -0.073297 -0.559636
0.286428 0.050407 0.245186
-0.237921 0.178128 -0.278678
0.265080 0.059886 0.118432
0.014959 0.056421 -0.254613
0.051646 -0.496773 0.010652
0.048527 -0.365932 0.120630
-0.164578 -0.346505 -0.051536
-0.243951 0.466881 -0.314022
0.034185 -0.434948 -0.009108
-0.159446 0.672921 -0.061775
-0.015329 -0.274570 0.449084
0.040695 -0.476127 -0.019815
-0.244923 -0.270001 -0.361274
0.037234 -0.487179 -0.032596
-0.005130 -0.238059 -0.050588
-0.053345 -0.373362 0.059678
-0.145659 0.708821 0.299868
0.361180 0.087338 0.281624
-0.049166 0.473998 -0.033592
-0.011205 0.098051 -0.527659
0.513533 0.017107 0.424126
-0.000451 0.609847 0.012886
-0.104990 -0.037012 -0.452501
0.052081 -0.004851 -0.233501
0.027823 -0.232514 -0.064098
-0.081165 -0.259157 0.057925
0.482024 0.043870 0.338840
-0.023228 0.698043 0.312370
0.411384 0.079743 0.277210
-0.061360 -0.441995 0.455471
0.436338 -0.129752 0.273102
-0.063874 0.051536 -0.981778
-0.284626 0.506584 -0.156607
-0.069011 0.267330 -0.415326
0.371288 0.068122 0.359529
-0.229755 0.029240 -0.390834
-0.169046 -0.308646 -0.369831
-0.219132 0.620809 -0.051133
-0.227916 0.522288 -0.258937
-0.098815 0.717267 0.289764
-0.183765 0.684775 0.338024
-0.146074 -0.189247 -0.642833
-0.183277 0.466808 -0.284031
0.313927 0.006951 -0.056457
-0.150427 -0.421759 0.462061
0.302082 -0.037071 0.100681
0.060573 -0.349424 0.406029
0.031180 0.083219 -0.383119
-0.147540 0.609652 0.060631
-0.212603 0.606964 0.169139
-0.040796 0.612636 0.141064
0.038084 -0.022675 -0.065353
0.148989 -0.284146 -0.019505
0.406318 -0.166771 0.056997
-0.046219 -0.367561 0.481898
0.367572 0.088799 0.284972
-0.294176 0.347709 -0.287388
-0.001218 -0.147061 -0.135655
-0.054472 -0.272379 -0.318817
-0.145751 -0.512054 0.338095
-0.044432 0.667485 0.190920
-0.161676 -0.353531 -0.047346
-0.052100 0.041240 -0.985551
0.037653 0.126221 -0.521074
-0.113784 -0.114187 -0.282025
-0.216069 0.494618 0.032418
-0.178632 0.388333 -0.228139
-0.121426 -0.165294 -0.241642
-0.066476 -0.368188 0.456809
-0.183843 0.596115 0.163682
-0.077602 0.707015 0.298692
-0.114126 0.514467 0.135942
0.113296 -0.376219 0.172767
0.015304 0.030609 -0.102139
0.069983 -0.398955 0.275235
0.312815 -0.027531 0.353632
0.024575 -0.278858 0.202504
-0.067826 0.666944 0.294174
0.071236 -0.382606 0.256472
-0.008920 -0.260886 -0.075521
-0.130983 -0.327369 0.158975
-0.009196 -0.462576 -0.014858
-0.022216 -0.120225 -0.151651
0.476470 0.007023 0.172039
0.185767 -0.007081 0.059335
0.527736 0.030382 0.349627
-0.062323 0.717551 0.318082
0.503538 0.035462 0.357287
-0.166967 -0.303163 0.166501
-0.037966 -0.416834 -0.195560
0.021054 -0.267465 0.209177
0.131199 -0.197587 -0.034845
-0.134977 0.738907 0.078183
0.177087 -0.002005 0.065768
-0.133881 -0.186721 -0.643170
-0.052547 -0.530745 0.463056
-0.192238 -0.161539 -0.613973
-0.006156 -0.229420 0.048065
0.194042 -0.072784 -0.050200
0.016885 -0.194270 0.037413
0.453746 0.020850 0.410688
0.047140 -0.512851 0.005701
-0.191158 -0.268435 -0.378309
-0.045104 -0.240099 -0.377184
0.142294 -0.021752 0.095670
-0.082179 -0.022405 -0.712392
0.010221 -0.248219 0.243361
0.491876 0.129169 0.375294
-0.029482 -0.381305 0.525771
0.096786 -0.408669 0.129383
0.076724 -0.389419 0.268552
0.053952 -0.426078 -0.257338
-0.078704 0.442806 -0.025344
0.420757 0.124468 0.268523
0.405358 0.166303 0.312873
-0.129176 -0.306493 0.402107
-0.036546 0.094633 -0.370191
0.039543 -0.174499 -0.140255
-0.057237 0.676019 0.310091
-0.031581 0.629872 0.011970
0.076386 -0.324458 0.373076
-0.143059 -0.294222 0.402115
-0.092125 0.344448 -0.343572
-0.067168 -0.447652 -0.184075
-0.338279 0.450683 -0.094901
0.126793 -0.066045 0.070984
0.015846 -0.004595 -0.623945
-0.195556 0.754052 0.180421
-0.132389 -0.051372 -0.276311
-0.043696 0.622161 0.182296
0.011449 -0.132107 -0.143937
-0.106176 -0.070509 -0.279204
0.377442 0.075683 0.354371
-0.046749 -0.472164 -0.175523
-0.166925 -0.090157 -0.375796
-0.133575 -0.011246 -0.410532
-0.102282 -0.364324 0.168861
-0.114414 0.034320 -0.590943
0.366497 -0.109820 0.037945
0.028114 -0.410549 0.469284
-0.065691 0.218282 -0.407507
-0.118576 0.447028 -0.058494
-0.230970 0.319806 -0.113745
0.449599 -0.107770 0.263681
0.487039 0.003582 0.168218
-0.066100 -0.007713 -0.742716
-0.123645 -0.474687 0.030896
-0.047866 0.659695 0.181196
-0.048384 -0.293111 -0.262379
-0.206587 -0.249802 -0.365278
-0.137781 -0.259900 0.308804
-0.066122 -0.031442 -0.459027
-0.049476 -0.536728 0.454902
-0.178694 -0.406154 0.072691
0.066202 -0.384036 -0.310755
-0.038534 0.474367 -0.186326
-0.235839 0.485852 -0.307798
0.311815 -0.034756 -0.063944
-0.172829 0.028424 -0.521115
-0.050604 -0.370862 0.105320
-0.050150 0.211711 -0.376518
-0.043653 -0.028922 -0.460698
-0.172983 -0.328456 0.156301
-0.089138 -0.319860 -0.482116
-0.176248 -0.356035 -0.040915
-0.187332 0.617785 0.168700
-0.066785 0.664043 0.290659
-0.024355 -0.067715 -0.564944
-0.090080 0.273461 -0.415196
-0.024919 -0.263025 0.240873
0.026341 -0.164052 -0.146199
-0.173988 -0.360223 0.154049
-0.111871 -0.161749 -0.210555
-0.043505 0.142437 -0.527229
-0.031567 0.013576 -0.588773
0.098315 -0.092129 -0.165958
-0.192597 0.130106 -0.235173
0.022778 -0.257070 0.241210
0.033469 0.048895 -0.239381
0.067684 -0.399268 0.497134
-0.093161 0.776155 0.256262
-0.010871 -0.216708 0.070607
-0.010775 -0.323517 0.435133
-0.127835 0.681713 0.184412
-0.263996 0.620339 0.176561
-0.247323 0.666398 0.086743
0.425483 -0.100002 0.266896
-0.220267 0.753383 0.193738
-0.098879 -0.268351 0.317418
0.013636 0.035097 -0.626470
-0.154114 0.075840 -0.533261
-0.202008 -0.450038 0.064076
-0.190705 -0.470883 0.034823
0.368581 0.092772 0.286914
-0.032824 -0.122399 -0.154355
-0.286072 0.681096 0.058415
-0.121809 -0.035612 -0.413443
0.110963 0.044081 -0.119855
-0.280127 0.664692 0.063836
0.011370 0.039644 -0.460187
-0.052338 -0.351698 -0.195584
0.064485 0.008532 -0.223779
0.479987 0.111936 0.401519
-0.043110 -0.443871 0.434284
-0.024615 -0.205689 -0.443162
-0.005772 -0.233007 -0.050943
-0.038878 -0.277063 0.045741
-0.167618 0.520035 -0.284153
-0.010640 -0.208968 -0.091079
-0.137368 -0.373276 0.188387
-0.073193 0.749881 0.225666
-0.070862 -0.269859 0.300127
-0.159849 -0.304929 0.435323
-0.319739 0.256025 -0.292727
-0.237498 0.327184 -0.118422
-0.064943 0.735888 0.299316
0.083380 -0.015549 -0.091538
0.331311 -0.033012 0.332387
0.011549 -0.360909 0.370568
-0.154213 -0.223922 -0.186709
0.437112 -0.128697 0.266581
-0.138148 -0.415808 0.461149
-0.166112 0.696673 0.335021
-0.099281 -0.169295 -0.251610
-0.131400 -0.352208 0.537412
0.190066 -0.138528 -0.173694
0.031062 -0.228854 -0.048146
-0.188115 0.066824 -0.532120
-0.050999 -0.382019 0.320923
0.287263 0.074368 0.131644
-0.059927 -0.389811 0.518590
-0.016680 0.633072 0.154451
-0.194159 -0.316592 -0.373600
-0.064481 -0.375721 0.366402
-0.210743 -0.385967 0.222269
-0.056932 -0.228469 -0.404009
0.000576 -0.204318 0.054162
-0.118414 0.776283 0.085314
-0.056668 0.451923 -0.050689
-0.162603 -0.364060 0.191409
-0.217798 0.620348 0.178997
0.080354 -0.158151 -0.366878
0.318449 -0.003599 0.333489
-0.024379 -0.278861 0.254658
0.054584 -0.052106 -0.071469
-0.055627 -0.334258 -0.524593
-0.220033 0.745442 0.194098
-0.132543 -0.303972 0.400741
-0.151409 -0.283914 0.150752
0.305936 -0.047597 -0.072889
0.169274 -0.248103 -0.083161
-0.012123 -0.380549 0.484136
-0.095817 0.700524 0.094169
-0.002177 -0.481178 0.188559
0.081932 -0.158362 -0.323671
0.082370 0.012081 -0.085031
0.334881 -0.110719 0.041127
-0.347984 0.296034 -0.255318
0.472867 -0.003718 0.403076
0.065811 -0.383862 -0.311569
0.057611 -0.176584 -0.375890
0.420409 0.142134 0.265226
-0.122961 -0.337124 0.518152
0.053696 -0.507247 0.009120
0.448418 -0.002064 0.411226
-0.055206 -0.249052 -0.355556
-0.074559 -0.422252 0.320526
-0.145491 -0.355519 0.157977
-0.081563 -0.385061 0.431636
-0.106061 -0.505431 0.322219
0.109085 -0.159939 -0.258885
0.394059 -0.127441 0.264365
-0.058747 0.276767 -0.399590
-0.277403 0.323091 -0.104085
0.048572 -0.422970 0.010817
-0.158988 -0.371633 -0.065226
0.317468 0.082149 0.242612
-0.022370 -0.509468 0.198037
-0.122618 0.532828 0.124091
-0.000057 -0.290868 0.431683
-0.022006 -0.134582 -0.129084
0.285524 0.131988 0.254004
-0.050609 -0.377199 0.200900
-0.177335 0.763446 0.181387
0.158555 -0.237594 -0.071702
-0.051093 -0.376224 0.325742
-0.228455 0.313398 -0.193089
0.109043 -0.167866 -0.049423
-0.087832 -0.056929 -0.471544
0.300385 0.045532 0.245391
0.149509 -0.057238 0.060663
-0.230328 0.701505 -0.040168
-0.195997 -0.094335 -0.383289
-0.056158 -0.265553 -0.327267
0.151906 -0.099678 -0.311613
-0.249875 0.506905 -0.117590
-0.053194 -0.284531 -0.284695
0.030978 -0.382877 0.384098
0.419367 -0.083711 0.386086
-0.243557 0.653912 0.179833
-0.294031 0.341047 -0.282601
-0.131878 -0.404730 0.068103
-0.086796 -0.430128 0.339603
-0.047714 -0.405844 -0.200712
-0.013072 0.662262 0.192923
-0.067349 0.532910 -0.161511
-0.212131 -0.415226 0.214919
-0.052855 -0.478506 -0.185218
-0.224557 -0.072818 -0.371650
0.098300 -0.445437 0.296765
-0.126396 0.709597 0.263920
-0.042339 0.513519 -0.136094
0.538768 0.038491 0.346825
-0.037395 -0.062306 -0.359086
-0.040808 0.791756 0.228252
-0.100245 -0.273319 0.341779
-0.089774 0.797533 0.281188
-0.253663 0.696425 0.056008
-0.022956 0.595830 0.029043
-0.068542 -0.443331 0.538300
-0.105747 -0.351649 0.388676
-0.243010 -0.266191 -0.355596
-0.007317 0.084176 -0.366843
0.130867 -0.054088 0.031719
-0.068332 -0.376274 0.415321
-0.105558 -0.486021 0.350328
0.488613 0.060685 0.398072
-0.141092 0.346522 -0.369474
-0.042608 -0.056992 -0.385681
0.285975 -0.045121 0.069644
0.007819 -0.195771 -0.081642
-0.026085 -0.283727 0.255207
-0.133160 0.780232 0.287829
0.059300 -0.436967 0.293397
-0.294096 0.329657 -0.237763
-0.180613 -0.304141 -0.372653
-0.022812 0.649090 0.038300
-0.282239 0.480811 -0.096576
-0.093892 0.000317 -0.459030
0.098109 -0.389736 0.281397
0.457101 -0.113142 0.276194
0.506837 -0.019338 0.167071
0.352702 -0.017269 0.398361
-0.166799 -0.372523 -0.061988
0.410315 0.161015 0.298781
-0.119071 -0.317471 0.152150
-0.233333 0.476305 -0.096585
-0.079724 0.028981 -0.672976
-0.051994 -0.419564 -0.200664
0.040796 -0.322641 0.377226
-0.012492 0.033841 -0.366120
0.389240 -0.118751 0.271184
0.135815 -0.211500 -0.039717
-0.026963 -0.537049 0.205710
-0.211147 0.677215 -0.071592
0.070213 -0.391298 0.142688
-0.059810 -0.532065 0.446612
0.439606 -0.059469 0.300041
-0.095213 0.375661 -0.396447
-0.213343 -0.260651 -0.370619
-0.081760 -0.004856 -0.493400
0.064078 -0.402641 0.097331
-0.269540 0.346658 -0.122658
-0.077559 0.520094 -0.163360
0.394724 0.083623 0.353632
0.399243 0.033767 0.337431
-0.003765 -0.518710 0.187457
-0.068676 -0.352060 0.478424
-0.179513 0.296755 -0.306932
-0.200671 -0.091463 -0.387986
0.300583 -0.077335 0.040747
-0.110007 -0.434767 0.458459
-0.021189 0.554181 0.037856
0.157710 -0.180003 -0.061751
-0.170694 0.218329 -0.340949
-0.004754 -0.434704 -0.301549
-0.027739 -0.391816 -0.314973
-0.085434 -0.169075 -0.241494
-0.122110 -0.033276 -0.414836
-0.077850 0.661461 0.170759
-0.118510 -0.457861 0.045143
0.091625 -0.022656 0.094764
0.101942 -0.167977 -0.339628
0.019774 -0.345631 -0.317924
0.442616 0.011062 0.190331
-0.005747 0.185311 -0.547307
0.448271 -0.060896 0.149125
0.168493 -0.054189 0.055935
-0.247604 0.478091 -0.101224
0.018318 -0.373543 -0.301472
-0.125909 0.051624 -0.543451
-0.274285 0.343634 -0.110880
0.028452 -0.253109 0.447114
0.486378 -0.038415 0.181266
-0.128346 -0.266157 0.325796
-0.142073 -0.340592 -0.063385
-0.009964 0.632339 0.149427
0.549087 0.017918 0.347422
0.379003 -0.111673 0.025767
-0.065431 -0.377157 0.369779
-0.300795 0.342160 -0.275149
0.152339 -0.151316 -0.063651
0.294222 -0.044636 0.363502
-0.081542 0.726494 0.090563
0.066312 -0.236020 -0.395770
0.462355 -0.043244 0.192524
0.250410 -0.122985 0.197149
-0.088586 0.700119 0.287039
-0.001419 -0.418689 -0.261348
-0.008923 -0.243554 0.235947
0.438771 0.010347 0.193005
0.140275 -0.123449 -0.298277
0.032830 0.175986 -0.530710
-0.028688 0.017009 -0.587275
0.007235 -0.521994 0.178156
0.393756 0.162353 0.320248
0.220957 -0.136315 -0.159942
0.108016 -0.095237 -0.332824
-0.079060 0.498385 0.129741
-0.171595 0.119620 -0.240221
-0.022919 -0.326627 0.217084
-0.053048 -0.369036 0.472006
-0.002878 -0.272940 0.037306
0.107786 -0.053625 0.060562
-0.029338 -0.452470 -0.012629
-0.090115 0.685001 0.298929
-0.213293 0.684762 -0.027912
-0.012117 -0.248862 0.421131
-0.051727 -0.253227 -0.364511
-0.021987 -0.190279 0.044313
-0.054801 -0.128475 -0.551363
-0.131089 -0.249904 0.330206
-0.056266 -0.366476 0.276137
0.363339 -0.009073 0.212592
-0.169119 -0.456604 0.248429
-0.087988 -0.165653 -0.243255
0.429023 0.002749 0.187918
-0.036344 -0.344151 0.210502
-0.051902 -0.526378 0.471530
-0.290005 0.329603 -0.149234
0.377357 0.025726 0.412979
0.261453 -0.134891 0.197895
-0.218374 0.495152 -0.280533
-0.047907 -0.530027 0.461208
0.027063 -0.056789 -0.586096
0.527749 -0.046557 0.174673
0.237616 0.118982 0.248273
-0.057997 -0.220060 -0.477741
0.013566 -0.288962 0.461638
0.003621 -0.489485 0.185314
0.288991 0.025088 0.229909
-0.077037 -0.344561 0.505996
0.266568 -0.001444 -0.082288
-0.193751 0.791497 0.153933
0.120865 -0.106146 -0.304449
-0.282096 0.336692 -0.290181
-0.011549 -0.507883 0.189043
-0.024053 -0.169096 -0.090503
0.012067 0.611783 0.000292
0.231894 -0.064507 -0.004705
-0.197143 0.116805 -0.221420
0.479356 0.027833 0.343202
0.106056 -0.231136 -0.393485
0.040405 -0.188490 -0.479008
-0.171643 0.604345 -0.065081
-0.151276 0.602247 0.057680
0.372039 -0.110511 0.047579
-0.144790 -0.451829 0.221848
0.450329 0.072135 0.370409
-0.162893 -0.226689 -0.205109
-0.060413 -0.448498 0.452528
-0.089218 -0.484802 0.340150
0.016314 0.111762 -0.527737
0.339201 -0.014494 0.416329
0.133243 -0.096303 -0.326921
0.045134 -0.404798 0.461691
-0.169565 0.182053 -0.394630
0.415589 0.151379 0.276722
-0.084525 0.410666 -0.033174
-0.184357 -0.346299 -0.043366
-0.043426 -0.356877 0.026715
0.157363 -0.084270 -0.085900
-0.069269 0.066982 -0.588156
-0.086916 -0.314637 -0.484430
-0.178347 0.115301 -0.237432
0.323913 -0.025189 0.351504
0.136590 -0.207910 -0.046247
-0.060551 -0.017266 -0.480197
-0.100910 0.321052 -0.377238
-0.182638 -0.275285 -0.376669
-0.309282 0.485922 -0.080013
0.029796 0.059906 -0.083636
-0.057985 0.718109 0.323408
0.354125 -0.032831 0.333550
-0.090533 -0.433948 -0.186193
0.067807 -0.394913 0.142247
-0.026047 -0.502095 0.191803
-0.056935 0.553731 -0.195037
-0.034281 0.099863 -0.370248
-0.243323 0.331325 -0.121691
-0.138267 -0.349195 0.160119
0.322012 -0.052218 -0.052628
-0.117726 -0.344381 0.402948
-0.097284 -0.451566 0.348033
-0.148809 0.627988 0.092503
-0.230116 -0.027321 -0.363930
-0.238955 0.660753 0.071589
0.187295 -0.192272 -0.063718
-0.039927 -0.274034 0.448201
-0.219389 0.784828 0.156599
-0.075231 -0.013955 -0.721407
-0.124681 -0.350434 0.166840
0.302653 -0.115468 0.179096
-0.169378 0.666477 -0.045156
-0.079411 -0.019394 -0.522684
0.002715 -0.277709 0.222817
-0.035605 -0.266690 0.225903
-0.087743 0.049419 -0.763027
0.438985 -0.174452 0.286468
-0.134539 0.076357 -0.539505
-0.124206 -0.278475 0.519939
-0.194862 -0.349467 0.393479
0.123057 -0.229985 -0.010272
-0.056508 0.340425 -0.357068
0.016592 -0.400268 0.260881
0.470680 0.013362 0.332996
-0.102140 0.201618 -0.425751
-0.048436 -0.051687 -0.468216
0.036737 -0.508920 0.200718
-0.232567 0.319223 -0.177130
0.042157 -0.342828 0.382081
0.059855 -0.320485 0.372342
0.017868 -0.232744 -0.079295
-0.043240 -0.264637 0.452545
-0.114090 0.739995 0.286570
-0.233220 0.494297 -0.110445
-0.047396 -0.338081 -0.067931
-0.192383 0.677739 0.336999
0.455495 -0.006327 0.171678
-0.103283 -0.338409 0.149701
0.230170 0.053460 0.137633
0.003662 -0.079854 -0.577919
-0.063078 0.719175 0.319915
-0.067519 -0.088252 -0.295746
0.330103 0.016120 -0.066749
-0.186662 0.141210 -0.258185
-0.230062 -0.227221 -0.357499
-0.236880 0.771419 0.192712
-0.217506 0.749795 0.200905
-0.009851 -0.406727 -0.296988
0.021792 -0.162804 -0.459930
0.081671 -0.454285 0.292762
0.005702 -0.204612 -0.445809
0.025006 -0.430830 0.500535
-0.156938 0.665311 -0.070410
-0.051497 -0.282636 0.051162
0.040062 -0.384147 0.278233
-0.047776 0.626858 0.026919
0.224300 -0.064870 -0.058198
-0.039706 0.216235 -0.373908
-0.052617 -0.271098 0.461905
-0.115002 -0.351147 0.532562
-0.050612 0.576833 0.015420
-0.124392 -0.504313 0.331145
-0.183828 -0.299801 -0.369257
0.050156 -0.195572 -0.386867
0.023028 -0.206045 -0.390666
0.484256 0.051946 0.377272
0.080462 -0.337708 0.142780
0.369958 -0.130712 0.050837
0.050480 0.075167 -0.209351
-0.222137 0.753561 0.194183
-0.182471 -0.095564 -0.373337
-0.339356 0.458716 -0.068799
-0.056997 0.201251 -0.427140
-0.109724 -0.250552 0.352010
0.154007 -0.249919 -0.087083
0.100189 -0.087296 -0.333087
0.073022 -0.335555 0.139478
-0.082872 0.693649 0.088553
-0.070471 -0.275258 0.304840
-0.161594 0.785843 0.189356
-0.117753 -0.314620 0.399777
-0.156363 0.708382 0.173834
-0.170090 0.631777 -0.062317
0.004841 -0.079226 -0.293885
-0.010951 0.027423 -0.602868
-0.053319 -0.137096 -0.125330
-0.160459 -0.154162 -0.206121
0.120713 -0.354609 0.160491
-0.029558 -0.506203 0.409826
-0.067614 -0.286496 0.444315
0.002660 -0.254229 -0.081701
0.096627 -0.172182 -0.045536
-0.034947 -0.258346 0.445252
0.016002 -0.241463 -0.456778
0.085666 -0.178125 -0.042496
-0.359391 0.296210 -0.258050
-0.194749 0.078521 -0.539711
0.092006 0.009881 -0.095252
-0.003706 -0.073650 -0.298587
-0.075190 0.324321 -0.371908
0.086823 -0.357328 0.363791
-0.067586 0.456272 -0.045028
-0.213669 -0.444997 0.215234
0.116665 -0.381517 0.153164
0.320675 -0.030112 0.335557
-0.174918 0.789124 0.198048
-0.066429 0.056085 -0.817283
-0.027758 -0.173223 0.071174
-0.197443 0.663084 0.066251
-0.132096 0.791775 0.286921
0.333708 -0.049300 -0.044259
0.088816 0.043375 -0.064032
-0.153042 -0.320671 0.164490
0.441084 -0.018952 0.173939
0.037331 -0.302082 0.372484
-0.119237 -0.431646 -0.199831
-0.085121 -0.192338 -0.236969
-0.096399 -0.273023 0.322806
0.068915 -0.413828 -0.263388
-0.205763 0.333280 -0.181664
-0.067310 0.730315 0.305027
-0.236296 0.369432 -0.163578
-0.051369 -0.478321 -0.183013
-0.057656 -0.053240 -0.396640
-0.212377 0.462835 -0.286033
-0.136504 -0.158764 -0.284410
0.052782 -0.328403 0.379254
-0.176769 -0.420066 0.222890
-0.150457 -0.482604 0.347345
-0.183869 0.146778 -0.265089
0.470040 0.095659 0.390243
0.497131 0.018985 0.341963
-0.138035 0.032618 -0.405283
-0.087861 -0.045233 -0.428813
0.339556 -0.128758 0.041198
0.279852 0.035241 0.243416
-0.010725 -0.158339 -0.111672
-0.074626 0.041937 -0.785669
-0.173548 -0.021033 -0.371969
0.019881 -0.278478 0.207573
0.142418 -0.085269 -0.114117
0.089927 -0.082907 -0.315860
-0.026339 -0.279757 0.256077
-0.054608 0.614626 0.141753
-0.049008 0.522897 -0.137390
0.095231 -0.402423 0.263631
0.054684 0.042392 -0.500435
0.200766 -0.062031 0.031331
0.098935 -0.406766 0.259683
-0.283182 0.642366 0.075958
-0.040940 -0.500061 0.463740
-0.210765 0.553589 -0.286322
-0.212514 0.293076 -0.120480
-0.058119 0.063480 -0.920940
-0.051847 0.667379 0.314984
0.017398 -0.381565 0.501670
-0.080018 0.333773 -0.351858
-0.141402 -0.399461 0.441658
-0.221000 0.465491 -0.091705
-0.172563 0.241728 -0.356886
-0.005001 -0.407061 -0.288737
-0.139911 -0.301603 0.509946
-0.012688 -0.160527 -0.118400
-0.164069 0.623813 -0.068709
0.014629 0.025178 -0.623670
-0.084572 0.405125 -0.018305
0.128006 -0.172947 -0.265015
0.023563 -0.514433 0.172638
0.016207 -0.272338 -0.101626
-0.026592 -0.176147 0.061202
0.458593 -0.051050 0.178347
0.409063 -0.131710 0.073797
-0.042194 0.655339 0.175836
-0.285036 0.679111 0.059165
-0.236719 0.613137 0.180918
-0.175249 -0.330486 -0.063504
0.040224 -0.004298 -0.229537
-0.222914 -0.081887 -0.385631
-0.044316 -0.262520 -0.338993
-0.103342 0.423374 -0.011704
0.049197 0.071676 -0.691274
0.151712 -0.146900 -0.193374
-0.054666 -0.380418 0.521726
-0.136001 0.003958 -0.397802
-0.137368 0.167774 -0.299041
-0.076319 0.804396 0.232595
-0.093085 0.503294 -0.170219
0.116445 -0.370789 0.176844
-0.108311 0.587619 0.106345
-0.108274 0.540463 -0.169348
-0.028338 -0.387670 0.250926
-0.078649 -0.446953 -0.191326
-0.223119 -0.350566 -0.025386
-0.055081 -0.469153 0.530985
0.073835 0.007098 -0.480490
0.166117 -0.104998 -0.079201
-0.005044 -0.155714 -0.134169
-0.055734 0.021325 -0.590883
-0.065345 0.336813 -0.359246
-0.125688 -0.290555 0.521648
-0.112297 -0.140247 -0.304588
-0.263189 0.619424 0.068599
0.038673 -0.382530 0.121216
-0.234557 0.492140 -0.108286
0.496404 -0.014257 0.329885
0.138565 -0.194377 -0.044240
-0.095341 0.794466 0.280932
0.019098 -0.055140 -0.579076
-0.022480 -0.232077 0.061318
-0.143345 0.643387 0.110389
0.058616 0.083856 -0.200434
0.325381 -0.057483 -0.060210
-0.074510 0.326133 -0.369314
0.089333 -0.353610 0.396270
-0.187461 -0.348199 0.394904
-0.158393 0.058093 -0.396079
0.252198 -0.143715 0.200812
0.262126 -0.135611 0.196615
-0.175448 -0.430103 0.088324
0.153097 -0.271932 -0.035938
0.399292 0.015188 0.289228
0.317107 -0.116875 0.033860
0.493160 -0.006151 0.430030
0.333669 -0.134351 0.041182
0.040046 -0.298111 0.373894
-0.141174 0.633224 0.094245
-0.158514 -0.295736 0.175598
0.009027 -0.518385 0.177048
0.062779 -0.084386 -0.222924
-0.106001 0.792843 0.281461
-0.099357 -0.267741 0.337746
-0.110210 0.759866 0.294641
0.425076 -0.110455 0.271207
-0.054679 0.214345 -0.396630
0.130668 -0.169157 -0.057229
-0.023339 -0.325906 -0.300674
-0.027342 -0.116497 -0.427794
0.379328 -0.101077 0.270202
-0.194209 -0.139591 -0.633210
-0.117042 0.449178 -0.062586
0.050009 -0.110227 -0.180230
-0.183324 -0.302145 -0.370211
-0.240017 0.330423 -0.121790
-0.071661 0.016321 -0.784633
-0.103799 0.741997 0.292979
-0.062433 0.053131 -0.628336
0.391562 -0.089013 0.056118
-0.212912 0.594272 -0.055519
-0.133093 -0.119761 -0.277051
-0.013612 -0.159563 -0.100343
-0.065018 0.723688 0.319700
-0.281549 0.346478 -0.123459
0.046212 -0.430387 0.265111
-0.120989 0.063925 -0.534998
0.022944 -0.405381 -0.273266
-0.300240 0.340900 -0.274245
-0.067173 0.266985 -0.410290
0.254804 0.117028 0.103266
0.031377 -0.342111 0.380094
-0.095693 -0.351720 0.522930
-0.155990 0.792890 0.295173
-0.216434 0.472087 0.039029
-0.229758 0.318311 -0.180142
-0.087442 -0.405907 0.505849
0.023988 -0.401243 -0.277212
0.078447 -0.006801 -0.481075
0.021735 -0.197796 -0.041734
-0.226217 0.478775 0.044059
-0.005174 0.022802 -0.580468
-0.160655 -0.224909 -0.365922
-0.325359 0.468615 -0.074939
0.014355 -0.142229 -0.148283
-0.149773 0.784018 0.286853
-0.113493 -0.454348 0.069361
0.478482 0.059010 0.383995
0.289874 -0.031505 0.093240
-0.101242 -0.032514 -0.454621
-0.185702 0.789394 0.171610
-0.042258 -0.500447 0.456935
0.035172 -0.428978 -0.263099
-0.029505 -0.313772 0.435470
0.445073 -0.129608 0.263827
-0.168569 0.521834 -0.285067
0.014283 -0.466159 0.201420
0.424510 -0.081151 0.395708
0.223820 -0.138820 -0.153753
-0.205391 0.133263 -0.262067
0.318964 -0.126403 0.199711
-0.019120 -0.437495 -0.015063
0.036936 -0.489305 -0.021541
0.038210 -0.484205 -0.008052
-0.069272 -0.374405 0.434584
0.466968 -0.006782 0.403455
0.419367 -0.091653 0.386114
0.026876 0.009364 -0.605788
0.129472 -0.352976 0.162426
0.206216 -0.096063 -0.207349
0.481954 0.015142 0.172035
0.324089 -0.107288 0.039534
-0.175065 0.544684 -0.304237
-0.145485 -0.445822 0.340856
-0.008264 -0.250819 0.430092
0.141067 -0.045653 0.071677
0.392858 0.014773 0.271599
0.036117 -0.253817 -0.067415
-0.296153 0.666135 0.062148
-0.027311 -0.314136 0.434787
-0.098681 0.783450 0.278400
-0.039524 0.615152 0.138251
-0.015796 -0.293040 0.224364
-0.041756 -0.324811 0.426229
-0.139512 -0.145587 -0.282981
0.464773 0.056568 0.408198
-0.217380 0.017604 -0.363512
0.024487 -0.375166 -0.303128
0.303873 -0.021032 0.352799
-0.129277 0.695042 0.229449
-0.086079 0.508712 -0.169216
-0.004137 -0.529871 0.194424
-0.090066 -0.006857 -0.547870
0.013893 -0.378309 0.503281
-0.131723 -0.475395 0.035420
0.283398 -0.041745 0.363929
-0.057115 0.647884 0.054748
-0.013472 -0.203911 0.066963
0.091157 -0.195738 -0.021428
0.091123 -0.387275 0.262850
0.226536 0.094564 0.129259
-0.029771 -0.445516 0.428657
0.312739 0.020379 -0.086876
0.377606 -0.111236 0.047449
-0.158662 0.794881 0.296000
-0.163499 -0.345433 -0.053218
0.023499 -0.076763 -0.261491
0.492279 0.156243 0.379491
0.358020 -0.015656 0.187001
-0.208302 0.432093 0.056682
-0.043237 -0.227593 -0.411084
-0.234611 -0.045041 -0.373559
-0.131157 -0.283512 0.524670
-0.188820 -0.009305 -0.370853
-0.159230 -0.349808 0.399741
0.266887 -0.136903 0.188322
0.344425 0.079199 0.379627
-0.204291 0.424999 0.041283
-0.106439 0.262472 -0.412326
0.054707 -0.390073 -0.022751
-0.055773 0.040843 -0.995627
-0.005146 -0.474665 0.191877
0.183147 -0.053865 0.045076
