-0.031536 -0.013796 -0.130100
0.341652 0.230960 0.259305
-0.012962 -0.149377 -0.091615
-0.012441 -0.228968 0.431605
0.329734 0.200432 -0.007261
-0.360977 0.010776 0.327555
-0.137058 0.124390 -0.640463
-0.169370 0.281235 0.366849
0.184946 -0.122117 0.447283
0.304070 -0.205078 0.438269
-0.137030 0.037929 -0.763444
-0.379153 -0.489807 -0.285301
-0.211108 0.117922 -0.061010
0.270698 -0.050396 -0.075679
-0.495550 -0.340847 -0.222218
0.176303 0.157994 -0.202933
-0.177061 0.004030 -0.599472
-0.175661 0.264451 0.159095
0.206964 -0.329566 0.454767
0.029336 0.215373 -0.108485
0.363322 -0.005640 0.228123
0.151426 0.149016 -0.286146
0.149725 -0.113684 -0.267396
0.268862 -0.000427 -0.056799
0.068545 0.069693 0.322167
0.288858 0.044636 0.438936
0.014862 -0.040981 -0.033897
-0.292688 -0.421534 0.107876
0.196676 0.047608 -0.294879
0.099240 0.148496 -0.195307
0.223777 0.086458 -0.210822
0.191370 0.047288 -0.305509
0.121687 0.178555 -0.104237
-0.131580 0.059754 0.029056
-0.326207 -0.513244 0.112567
0.102388 0.060012 0.041976
0.061597 0.058883 -0.499849
0.450291 0.106625 0.256180
-0.251806 0.062111 -0.941841
-0.316968 -0.286959 0.040782
-0.175999 -0.086720 -0.620310
-0.024551 0.157707 0.251501
-0.089043 0.293363 0.185466
-0.057237 0.146160 0.129376
-0.106044 -0.472670 0.099550
0.251596 0.121058 0.386969
-0.365516 -0.196758 0.111266
0.209311 0.087519 0.138280
-0.102261 -0.429208 0.101383
0.029226 0.236268 0.163982
0.167109 0.166286 -0.203968
0.259685 -0.234124 0.466445
-0.393113 -0.369322 -0.236856
0.062845 0.173517 -0.096016
-0.021824 -0.108404 -0.156178
-0.214870 0.119906 0.243604
-0.200285 0.323215 0.095516
0.254916 -0.114394 0.307238
0.056302 0.110684 -0.084283
-0.266530 0.037769 0.401509
-0.184051 0.071726 -0.816213
-0.024304 -0.050069 -0.721077
-0.486054 -0.090078 -0.625346
-0.126595 0.059439 0.404921
0.253924 0.421398 0.283138
-0.187384 0.195441 0.381056
0.363344 0.150779 0.251038
-0.377461 -0.184745 0.113727
-0.475991 -0.023768 0.298369
0.270890 0.283404 0.297024
0.109565 -0.006031 -0.087383
0.153110 -0.018152 -0.144778
0.234183 0.127222 0.430855
-0.093222 0.346925 -0.070017
-0.208942 -0.560921 0.069723
0.340519 0.357257 -0.007295
0.015414 0.331639 -0.023270
0.324099 0.219643 0.275338
0.253998 0.084615 -0.250107
-0.349333 0.217020 0.392555
0.264357 0.451147 0.282406
0.526317 0.041088 -0.258932
0.032205 0.006636 0.048633
-0.340842 0.000712 0.327963
0.368554 0.180879 0.242464
-0.339814 0.138474 -0.684036
0.078032 -0.055504 0.195177
-0.200500 -0.417337 0.139409
-0.353839 0.003957 -0.823086
0.325950 0.221171 -0.009549
-0.407985 -0.094567 -0.541174
-0.244021 0.293028 0.118777
0.248203 0.002769 0.454347
-0.045941 -0.195580 0.421009
-0.035675 -0.089505 0.097402
0.220925 -0.209752 0.459988
-0.039380 -0.401763 0.058587
0.398845 0.100370 0.104416
-0.173065 0.074563 -0.070766
0.001153 -0.472182 0.014846
0.216962 0.101322 0.025628
0.356927 0.050374 0.116787
0.243318 0.109355 -0.468389
0.308556 0.015439 0.123460
-0.036384 0.154218 0.344954
-0.184682 0.168731 0.442080
0.055944 -0.388272 0.010927
-0.030887 0.266295 0.185683
-0.415190 0.187712 -0.618220
-0.234420 -0.527503 0.088024
-0.583399 -0.049445 -0.637613
0.149193 0.158679 0.201088
0.185046 0.455097 0.257627
-0.191021 0.045459 0.135819
0.138186 -0.116445 -0.314916
0.431140 0.244953 0.296638
-0.166685 0.247925 0.183873
0.256483 -0.166894 0.435239
-0.144788 0.131555 0.435990
0.169570 -0.005182 -0.289995
0.191386 0.461502 0.251412
-0.164957 -0.048192 -0.527642
0.178403 -0.190240 -0.398982
-0.227470 -0.596699 0.053322
-0.082903 0.138075 -0.303080
-0.111218 0.132318 -0.561376
-0.195309 -0.320457 -0.159992
-0.172231 0.084149 -0.805052
0.413691 0.194882 0.257959
-0.066235 0.068865 0.270775
0.096076 -0.051180 -0.537598
-0.198278 0.167595 0.101285
0.039005 -0.144118 0.358362
-0.380895 -0.466917 -0.269412
0.428440 0.001522 0.275486
0.100890 -0.201795 -0.357860
-0.058726 0.282711 0.037373
0.302368 -0.190241 0.432801
0.051835 -0.100546 0.345808
0.127808 0.043943 0.292175
-0.060798 -0.223120 0.415210
0.135414 0.205058 -0.296578
-0.149096 0.264533 0.185188
0.501402 0.111287 -0.286574
0.232359 -0.028831 -0.011187
-0.515763 -0.090627 -0.629269
-0.131177 -0.529109 0.076798
-0.225639 0.078705 0.308339
-0.186863 0.031129 0.031392
0.191742 -0.129624 0.439453
0.190563 -0.090641 -0.029964
0.253396 0.007391 -0.503089
-0.267893 0.181194 0.381318
0.411723 0.123983 -0.234947
-0.196021 0.047233 0.117586
-0.000504 0.192048 0.149417
-0.039112 -0.065055 -0.475956
0.138835 -0.087330 0.536208
-0.160498 0.289414 0.351660
0.124177 0.190159 0.175808
0.304088 0.092918 0.385855
-0.160174 0.006979 -0.492920
-0.072775 0.146758 0.118122
0.170539 0.184344 0.211502
-0.007049 -0.118399 -0.129459
0.091014 -0.060844 0.308957
0.065480 0.064953 -0.278008
-0.162223 0.259360 0.200935
0.097072 0.140830 0.224798
-0.344757 -0.044712 0.294960
-0.020742 -0.036025 0.120197
0.113466 0.059438 -0.404552
0.439761 0.154703 -0.257587
-0.452287 -0.025031 -0.659326
0.071526 -0.380169 -0.001767
-0.022342 -0.083558 0.094598
0.095550 -0.006722 -0.529226
-0.234842 -0.040464 0.440020
0.323797 0.413138 -0.016699
0.205239 -0.139099 -0.352834
-0.024397 -0.041160 0.038947
-0.313582 -0.208882 0.066547
-0.204088 -0.530323 -0.127069
-0.213978 0.155204 0.266596
0.142758 0.001506 -0.434000
-0.038254 -0.076097 -0.713773
0.111095 0.258862 -0.316668
0.004520 0.084291 -0.285819
0.065608 0.327635 0.164181
0.128792 0.343568 0.198114
0.170074 -0.108977 -0.326456
-0.040263 0.057827 0.286893
0.008314 -0.472565 -0.002742
0.376909 0.029209 -0.143723
-0.184042 -0.030781 -0.616265
-0.381814 0.007540 -0.771264
-0.502473 -0.465412 -0.228280
0.077282 -0.038537 0.216851
0.078282 0.029357 0.294291
0.160010 0.007601 -0.459953
-0.223824 0.127317 0.102660
0.014082 0.102283 -0.542727
0.010083 0.082126 -0.284911
-0.194111 -0.271033 -0.311407
-0.217666 -0.509638 0.089561
-0.326135 -0.435657 0.094320
0.419290 0.162358 0.085009
0.163721 -0.006544 0.122606
0.047214 -0.018012 0.518902
-0.205769 0.077952 0.226694
-0.331434 -0.398602 -0.258657
-0.157707 -0.032276 -0.481588
-0.150049 -0.118539 0.097604
-0.151341 0.242150 0.370717
0.022452 0.194732 -0.186627
-0.179368 0.180696 0.259002
0.294282 0.356299 0.012082
0.315935 0.507562 0.217016
0.093745 -0.140971 0.386143
0.015184 -0.182771 0.440172
0.466709 0.159598 -0.311173
0.378044 -0.113742 0.215382
0.222245 -0.314067 0.376452
-0.239714 -0.520211 0.089656
-0.129068 0.255410 0.229182
-0.215653 -0.569830 0.100660
0.197114 -0.163720 0.456816
-0.057438 0.077708 0.402361
0.442457 0.315504 0.129003
-0.066334 -0.176114 -0.055584
0.402071 0.080715 0.064271
-0.125555 -0.330558 0.181679
-0.044157 0.177171 0.154366
-0.398891 -0.571952 0.060901
-0.047697 -0.493691 0.038522
0.301450 -0.150854 0.282148
-0.105130 -0.131199 0.086886
-0.095237 0.000019 -0.333510
-0.293327 0.012148 0.410916
-0.215190 0.025574 -0.873905
-0.228537 0.115390 0.330519
-0.226937 0.240279 0.130344
0.111312 0.222687 0.131902
0.482378 0.057285 -0.281734
-0.177778 0.145768 0.369409
0.167620 0.011536 0.550670
-0.221744 0.076369 -0.985889
-0.026510 0.098901 -0.027190
0.255903 -0.165041 0.455781
0.239199 0.042183 0.021636
-0.126786 0.153275 0.439652
0.257046 -0.291958 0.450955
-0.309943 -0.378877 -0.254998
0.127305 -0.094770 -0.170428
-0.149064 0.009601 0.406582
0.316400 0.038228 0.128420
0.114704 0.023432 -0.349106
-0.004390 0.189240 0.148300
0.332415 0.061158 0.392154
0.001591 -0.162678 -0.107036
0.224442 0.090883 0.403834
-0.167549 -0.418955 -0.094655
-0.548718 -0.033843 -0.633331
0.138815 0.103780 -0.347962
0.337632 0.439389 0.217317
0.355390 -0.019463 0.255761
-0.438256 -0.213843 -0.593087
0.239241 0.003878 -0.001931
-0.152444 0.212864 0.245193
-0.035996 -0.233015 0.427027
-0.233160 0.063421 0.345865
-0.382563 -0.565250 0.080434
-0.070361 0.128606 -0.329760
-0.059684 0.195291 0.329059
0.146095 -0.110153 0.358203
-0.088303 0.164981 0.344211
0.095923 0.344645 0.192963
0.152469 -0.010295 0.567165
-0.112246 -0.157449 -0.053099
0.349842 0.348778 -0.087239
-0.037563 0.174844 0.341222
-0.385492 -0.474445 0.083089
0.149637 0.114761 0.284749
0.115454 -0.114680 0.347513
-0.332997 -0.106175 0.145377
-0.405632 -0.234495 -0.561180
-0.206995 0.004916 -0.663307
-0.320847 -0.504539 0.113712
0.278101 0.048105 0.445390
-0.263724 0.060555 0.403340
0.031882 -0.235924 0.364912
-0.220342 0.121493 0.100473
-0.143483 0.103015 -0.652450
-0.319925 -0.220546 0.105902
0.335324 0.369636 -0.003246
0.399153 0.079312 0.068345
-0.148393 -0.110878 0.110479
-0.187782 0.072529 -0.802505
0.453539 0.054741 0.225608
0.319356 0.372457 0.010746
0.105304 -0.139663 0.524950
0.303068 -0.237819 0.413192
-0.286828 -0.205863 0.111188
0.081398 0.203867 0.093150
0.341938 0.265151 -0.060829
-0.023408 -0.179356 0.386222
0.280005 -0.148739 0.293304
-0.311772 -0.153652 0.139758
0.229850 -0.004849 0.002809
-0.269712 -0.084287 0.132699
0.310545 0.006459 0.099935
-0.266447 0.177683 0.468336
-0.259744 0.035272 -0.897855
-0.190542 0.050403 0.114067
-0.196113 -0.020147 -0.735008
-0.041316 0.135800 0.132173
0.060356 -0.229266 0.358836
0.269737 0.407875 0.254878
0.257255 0.239972 0.314833
-0.452285 0.072041 0.327046
-0.201584 0.046665 0.264075
0.150343 -0.010507 -0.138259
0.160179 0.004448 -0.286695
0.355526 0.161583 -0.034674
0.086175 -0.069140 0.287988
-0.239100 0.166848 0.305207
0.016719 0.333811 -0.020633
0.372681 0.308097 0.166362
0.281400 0.128855 -0.132019
-0.058942 -0.071832 0.128083
-0.130112 0.296353 0.173492
0.286945 -0.011112 -0.145976
0.157555 -0.284763 0.479852
-0.065074 0.132225 -0.484359
-0.045211 0.208644 0.229160
0.100032 0.257803 0.090169
0.051010 0.003732 0.043212
-0.207966 0.080818 -0.810138
0.349461 0.055178 0.309768
0.176529 -0.187587 -0.387126
-0.184029 0.076041 0.340266
0.283811 0.238921 0.053330
0.309423 0.191825 0.184324
0.368569 0.019273 0.310240
0.142905 0.134920 -0.236566
0.134493 0.202837 0.130110
-0.460650 -0.185870 -0.597175
-0.155146 0.334696 0.078483
0.278444 0.059264 -0.159034
-0.225565 0.077707 0.292540
0.120968 0.210707 -0.102069
-0.074638 0.127722 -0.441188
0.402950 0.353183 0.135341
0.139791 0.163880 0.163732
0.394050 0.361158 0.130266
-0.227070 0.004285 -0.787695
-0.034074 0.023402 0.406791
-0.196002 -0.347451 -0.052499
-0.253107 0.122293 -0.083890
-0.069316 -0.115066 -0.065025
0.035361 0.265480 0.213053
-0.140487 -0.509717 0.091640
0.256425 0.097006 -0.248982
0.272732 0.063711 0.443571
-0.170517 -0.005758 -0.463771
0.031430 0.206723 -0.140525
-0.409042 0.080472 0.333948
0.065451 0.244432 -0.205838
-0.190400 0.286366 0.146761
-0.089535 -0.121140 -0.067310
0.378750 -0.013699 0.241384
-0.131317 0.127596 -0.643527
0.031064 0.272375 0.203844
-0.486742 -0.161679 -0.627903
0.027849 0.104133 -0.064147
-0.131677 0.286495 0.167282
0.330289 0.435318 0.247105
0.336331 0.464294 0.224206
-0.226016 0.063109 0.357304
-0.084249 0.130437 -0.409666
0.440143 0.309065 0.140947
-0.195021 0.053548 0.223117
-0.390196 -0.313796 0.025066
0.043943 -0.409170 -0.035814
-0.189827 -0.491636 0.112111
-0.250822 0.051691 -0.763727
0.233016 -0.199169 0.469653
-0.226427 0.034970 0.403585
0.164327 -0.184164 -0.371632
0.087065 -0.230860 0.410568
-0.414675 -0.097795 -0.548017
0.190170 -0.114690 0.498028
0.159535 0.133865 0.251990
0.189611 0.025773 0.057517
0.257425 0.030945 0.452841
-0.186422 0.047821 0.341609
0.028222 0.145274 0.318802
0.282173 -0.095390 -0.328971
-0.057899 0.088145 0.149332
0.213526 -0.103590 0.448020
-0.026078 -0.023944 0.390125
-0.256232 -0.301367 -0.299646
-0.055681 -0.108260 -0.474128
0.446335 0.306835 0.125229
-0.253205 0.060716 -0.990826
0.038970 0.332313 0.007273
0.304731 0.259768 -0.000749
-0.376592 -0.050428 0.297233
0.106686 -0.139102 0.525929
-0.043705 0.331160 0.027261
-0.145252 0.341199 0.083158
-0.204350 0.231736 0.156310
0.285906 0.176466 0.041745
-0.342316 -0.066378 0.131708
0.555713 0.238321 0.196316
-0.093254 -0.231644 -0.076387
-0.318436 -0.022885 0.318866
0.343086 0.213125 -0.033878
0.011601 0.195655 -0.174858
-0.170370 0.252721 0.213797
-0.034284 0.158953 -0.046227
0.431400 0.303643 0.074927
-0.189561 -0.528184 -0.090175
0.270345 0.409696 0.253044
0.273772 0.221967 0.298794
-0.405608 -0.577491 0.037686
0.363750 0.336980 -0.065003
-0.264820 -0.079478 0.121553
0.096176 0.232676 0.130918
-0.358620 -0.444540 -0.266619
0.167352 -0.007466 0.129350
-0.187634 -0.076273 -0.634331
-0.413034 -0.050023 0.265027
-0.188151 -0.317981 -0.166195
-0.090412 -0.122760 -0.065992
-0.455265 0.032654 0.320902
0.164194 0.290865 0.075422
-0.047840 0.152336 0.032406
-0.207154 -0.017745 0.437926
-0.099371 -0.092794 0.369090
-0.195839 -0.515022 0.146543
0.235343 -0.046031 0.111712
0.370233 -0.136880 0.262214
-0.216633 0.226161 0.458588
-0.049549 -0.240542 -0.086157
0.258228 -0.162327 -0.375722
0.300386 0.032279 -0.163926
0.342798 0.374736 0.221631
0.059156 0.001121 -0.018187
-0.016538 0.011811 0.318783
0.130178 0.201634 -0.264716
0.009295 0.087199 -0.054202
0.139171 0.217468 0.125100
-0.397263 -0.116225 0.117847
0.337278 0.269732 -0.065241
-0.186635 -0.519795 0.148510
-0.142304 0.063470 0.402740
0.212836 0.042706 -0.279145
-0.163056 0.017971 0.409616
0.047223 0.198960 -0.110784
-0.342073 0.139397 -0.709642
0.389289 0.096203 0.295953
-0.217408 0.070766 0.078482
0.111081 0.134127 0.076567
-0.232882 0.279040 0.059548
-0.180069 0.013816 -0.164224
-0.074239 -0.211047 0.358729
0.515899 0.152907 0.250035
0.335183 0.423365 0.232692
0.287225 -0.194795 0.208326
-0.196856 0.046458 0.267593
0.286753 0.104577 0.402689
0.149721 0.007759 0.564953
0.025809 -0.425672 0.027015
0.078604 -0.246243 0.358990
0.146062 -0.166513 -0.347389
-0.144293 0.132721 0.225090
0.183634 -0.114699 -0.298830
-0.215787 0.235468 0.203873
0.087502 0.116851 0.311390
-0.180597 0.061627 0.338415
-0.200280 0.041041 0.248648
0.122732 0.189102 0.187371
-0.225703 0.056783 0.327146
-0.067529 0.292452 0.120684
0.210025 0.176904 0.188722
0.023875 0.213656 -0.108412
0.278072 -0.182097 0.276154
0.096278 0.115803 0.185142
0.332510 0.215433 -0.016791
-0.112992 -0.052297 -0.266351
0.349231 0.039178 0.391340
0.137369 -0.117894 -0.314506
0.285256 0.291106 0.282297
0.076729 -0.054900 0.281077
0.087897 0.002818 0.542814
-0.000860 -0.099589 -0.555088
-0.099381 -0.000577 -0.341116
0.302316 0.295141 0.277480
-0.023295 -0.101826 -0.511558
0.301281 0.183796 0.016109
0.182576 0.163537 0.206756
0.372280 -0.021803 -0.156639
0.100230 0.285949 0.025093
0.357110 0.000486 0.400211
0.162919 0.082580 -0.169315
0.162633 -0.165634 0.507934
-0.225023 0.076591 0.312606
0.162112 -0.011910 -0.466672
0.490930 0.122924 -0.276568
-0.138847 0.268115 0.161874
-0.216482 0.154378 0.268789
0.104164 -0.042841 -0.111153
0.365375 0.349683 -0.059912
-0.082140 0.342267 0.008935
0.260216 -0.025641 0.450180
0.475542 0.043681 -0.275960
0.259831 0.287175 0.150523
-0.382257 -0.271270 0.024227
0.162576 -0.280594 0.485987
-0.036992 -0.031381 0.389352
-0.332256 -0.191385 -0.529536
-0.490367 -0.032831 0.267616
0.196380 0.049490 0.441084
-0.158450 0.013547 0.278102
-0.211687 -0.000806 -0.667272
-0.399895 -0.099046 0.101398
-0.005492 0.261474 0.042955
-0.185608 -0.333969 -0.109513
0.132820 0.176094 -0.078964
0.132958 0.373821 0.166059
0.041760 0.238788 -0.011165
0.339971 0.026452 0.310818
-0.189130 -0.183371 -0.465161
0.537454 0.280740 0.253827
-0.441439 -0.321987 -0.223416
-0.028289 -0.071446 -0.503849
0.170837 -0.020732 -0.296704
-0.241575 0.085523 -0.966687
0.030605 0.334683 -0.006435
0.059769 0.096708 -0.262409
-0.348429 0.132275 -0.681363
0.071776 -0.160742 0.403851
0.130108 -0.108530 0.328801
0.305839 0.264766 -0.012570
0.247395 0.204670 0.140760
-0.282985 -0.182112 0.131484
0.243701 0.028110 -0.226696
-0.195725 0.200832 0.446676
-0.182746 -0.448911 0.132677
0.182246 0.199648 0.208901
0.318777 0.510803 0.261402
-0.182158 -0.350929 -0.065233
-0.046311 -0.052986 0.135959
-0.246586 0.076453 0.414484
-0.175229 0.039212 -0.028563
0.252791 0.090781 -0.243556
-0.303551 -0.652391 0.024305
-0.053978 0.346977 0.003081
0.368049 -0.142829 0.239946
0.133954 -0.044792 -0.145264
-0.228911 0.093218 0.314547
0.025246 0.331531 0.013103
0.273035 0.066120 -0.140619
0.149256 -0.004672 0.569867
-0.015027 -0.104689 -0.146213
-0.165426 0.257679 0.198395
0.071547 -0.057514 0.128721
-0.222822 0.116741 0.328858
-0.357609 -0.447656 -0.268970
-0.164710 -0.548315 -0.152181
-0.210554 0.064347 -0.075371
0.274612 0.252066 0.305622
-0.295155 -0.354676 0.021856
0.369975 0.032341 0.410922
0.190660 -0.284906 0.484203
-0.367615 -0.041419 0.271047
-0.083847 0.049814 0.043768
-0.569019 -0.109598 -0.638739
-0.026408 -0.065121 0.373497
-0.210131 0.067343 0.264089
-0.056249 0.128315 0.077625
0.069669 0.143085 0.231569
-0.035268 0.145432 0.138978
-0.101982 0.366925 -0.087881
-0.355892 -0.208010 0.111949
-0.349307 0.231836 0.386827
0.286307 0.133631 -0.137026
-0.166525 -0.050516 -0.453621
-0.239221 0.033093 0.401622
-0.312384 0.218332 0.396557
0.342951 0.006483 0.225838
0.032496 0.171938 0.166266
0.302988 -0.117465 -0.368751
-0.378630 0.124653 0.326062
0.067715 0.057157 -0.496422
0.171580 -0.158709 0.495642
0.343773 0.067813 0.062803
0.091883 0.249519 0.110185
-0.370417 -0.301517 -0.213719
0.165296 0.103711 -0.176239
0.196936 0.181212 0.092981
-0.393986 -0.302370 -0.205706
-0.179964 -0.053525 -0.535896
-0.188873 0.061297 0.212070
-0.009235 0.193016 0.196420
-0.204753 0.067163 -0.814653
0.310652 0.021930 0.127584
0.266015 -0.031018 0.450613
0.041420 0.301367 0.064798
-0.142068 -0.037945 0.412412
0.299386 -0.066282 0.418424
0.192641 0.215049 -0.144207
-0.043648 -0.043645 0.139039
-0.177208 0.238725 0.443025
-0.378173 -0.006145 -0.795037
-0.173752 0.138869 0.083450
0.000592 -0.101092 0.366968
0.119834 0.272934 0.053784
-0.132116 0.127804 -0.625460
0.444014 0.014530 0.230914
0.103801 0.186091 0.164419
0.145263 0.178313 -0.304959
0.165236 -0.049419 -0.207706
-0.029431 -0.087009 -0.118513
-0.148045 -0.021215 0.412197
-0.020223 0.125079 -0.346197
-0.082772 -0.453560 0.044906
-0.297712 -0.207281 0.068068
0.269422 -0.229403 0.460735
-0.377098 -0.252272 0.018629
-0.011112 -0.230597 0.366922
0.272946 -0.243427 0.460763
0.336079 0.463582 0.221295
0.493434 0.133274 -0.279509
-0.173936 0.078139 -0.797276
-0.417373 0.015830 0.329167
0.544294 0.216844 0.245832
0.299606 0.084268 0.115714
0.277656 0.133670 -0.126903
0.346826 0.320761 0.208333
-0.142939 0.174315 0.450837
-0.003873 -0.147109 -0.150556
0.197413 0.035339 -0.304079
-0.173073 -0.048605 -0.479737
-0.122671 0.112799 0.438510
0.079664 0.033823 0.294964
0.349076 -0.107324 0.240544
-0.221497 0.240710 0.142005
-0.135583 -0.164718 -0.054820
-0.078413 -0.553652 -0.145079
-0.053784 0.137071 -0.444552
0.041183 -0.033313 0.509211
-0.484247 -0.017658 0.288393
0.377776 0.100439 0.023614
0.377902 -0.121109 0.190453
-0.467421 -0.014834 0.305518
0.291725 -0.123896 -0.356710
0.089170 0.064776 -0.465199
0.022943 0.102855 -0.061555
0.151873 -0.243943 0.504268
-0.113672 -0.512972 -0.090853
0.176183 0.152379 -0.192812
-0.011954 0.064430 0.393012
0.192260 -0.145981 -0.355781
0.136410 -0.098278 -0.180844
-0.383866 -0.206243 0.112511
-0.072752 -0.085054 -0.686915
-0.206006 0.055178 0.159130
0.306697 0.057278 0.352332
0.041695 0.117830 0.330032
0.046132 0.258219 0.189472
0.232715 0.066217 -0.123968
0.017381 0.327255 0.018323
-0.105805 0.154238 0.433058
0.474463 0.133748 0.253580
-0.267584 0.078182 0.424198
0.359928 0.028690 0.414476
-0.163735 0.291661 0.352167
-0.110498 0.110805 -0.568962
-0.066933 0.072827 0.268106
0.154999 -0.099058 -0.262834
-0.213847 0.066440 0.311909
0.039039 0.226230 -0.064501
0.113901 -0.220201 0.408489
-0.134619 0.276337 0.169582
0.011370 -0.157594 0.353044
0.301344 0.379738 -0.037470
0.095150 0.050187 0.038889
-0.224061 0.012002 -0.811473
0.161806 -0.102983 0.380624
-0.035886 -0.073853 0.315759
0.081980 0.121990 0.097563
-0.075166 -0.016567 -0.240540
0.197631 0.005108 0.531166
0.004512 -0.113237 0.365903
-0.184475 -0.208984 -0.399395
0.305236 -0.250907 0.384299
-0.148887 -0.424765 0.101374
-0.386908 -0.191733 -0.549768
0.067738 0.332909 0.172071
-0.200838 0.234356 0.384271
-0.319019 -0.031976 0.300472
0.158255 -0.155645 0.518900
0.167320 -0.177028 0.503732
0.062201 0.055799 -0.520277
-0.141639 0.308901 -0.030671
0.288633 0.549839 0.244582
-0.198452 0.071002 0.078411
-0.334218 0.131177 -0.708065
0.191516 -0.072655 -0.011092
-0.147083 -0.549896 -0.113000
-0.027457 0.250446 0.190969
0.023677 0.102245 -0.552452
0.000488 0.042344 0.387765
0.178789 -0.016415 0.548885
-0.344320 -0.408519 -0.259457
0.161115 -0.024784 -0.480492
-0.118847 -0.148013 -0.488404
0.265649 -0.009946 -0.052908
0.157918 -0.032545 0.553670
0.043844 0.275043 0.153091
0.246370 -0.124345 -0.305795
0.260800 0.548999 0.205360
0.045552 0.307571 0.059105
0.244766 -0.048751 0.064720
-0.054463 0.288326 0.140154
0.121087 0.061242 -0.410059
0.055589 -0.040672 0.336825
0.102504 0.263903 0.205675
0.041853 0.006061 0.050939
0.075624 -0.018900 0.303775
0.104916 0.261003 -0.311342
0.013539 -0.101396 0.363092
0.248257 -0.105545 -0.301589
0.148207 -0.022987 -0.444876
-0.011949 0.125096 -0.336726
0.242593 0.546028 0.208342
-0.137806 0.074050 0.434324
0.338753 0.219016 0.063154
-0.350363 0.149980 -0.672236
-0.146846 0.252469 -0.005938
-0.205408 -0.295335 0.188314
-0.153706 0.024536 -0.529600
0.008674 -0.468884 0.006405
-0.181958 -0.105234 -0.617785
0.114239 0.195543 -0.116572
-0.042706 -0.068506 0.368118
-0.130474 -0.381475 0.154187
0.084808 -0.095258 -0.217494
-0.013836 -0.341619 0.062677
0.137863 -0.124497 0.526755
-0.193690 0.287294 -0.010935
-0.225619 0.073929 0.304107
-0.181000 0.110798 -0.773244
-0.085565 -0.112273 0.102333
0.174095 0.175618 -0.229511
0.036414 -0.200625 0.344381
0.000416 0.049174 -0.601625
0.512633 0.028880 -0.292006
-0.245137 0.211874 0.383213
-0.113042 0.131653 -0.551365
0.092180 0.307203 0.029374
0.018674 -0.014861 0.006970
-0.171291 -0.404441 0.078001
0.178741 0.162258 0.205857
-0.029153 -0.241784 0.403099
-0.380151 -0.116782 -0.523402
-0.032308 -0.210527 -0.080027
-0.085124 0.365698 -0.091195
-0.460070 -0.181783 -0.592482
-0.024349 0.279525 0.046850
-0.007348 0.138226 -0.288432
-0.008299 -0.476817 0.024743
0.264715 -0.147507 -0.340555
0.095255 0.259734 -0.305547
0.237117 0.278879 0.120299
0.029890 0.112910 -0.065166
0.199499 0.057002 -0.197106
-0.168722 0.332340 0.073498
-0.265417 -0.480770 0.099954
0.147062 0.156385 -0.292399
-0.141613 0.124535 -0.701414
-0.104488 0.122544 -0.573061
-0.370929 -0.518122 0.113196
-0.050487 0.134364 -0.036382
-0.071915 -0.458332 0.043814
-0.339468 -0.615152 0.031195
0.310478 0.216997 0.009305
-0.513450 -0.438535 -0.221685
-0.257764 0.082427 0.076462
-0.150177 -0.045377 -0.466717
-0.093914 0.135533 -0.514244
0.163386 0.041091 -0.130205
-0.181265 0.203859 0.234061
-0.190240 -0.117908 -0.578209
0.281147 -0.148907 -0.377274
-0.173240 -0.366998 0.156850
0.351812 0.016019 0.118136
-0.294803 -0.152465 -0.526269
0.049010 -0.016122 0.517942
0.439009 0.166053 -0.272825
0.219878 0.474495 0.288328
-0.030267 0.209151 0.201335
-0.123420 0.139218 0.436183
0.079128 0.145117 0.250928
0.086287 0.034253 0.300437
-0.079203 -0.545488 -0.128870
0.169333 -0.075682 0.527857
-0.122171 0.379099 -0.105329
-0.149384 0.268536 0.192289
-0.066234 0.038288 0.028633
-0.102643 -0.579284 -0.173563
0.510597 0.104410 -0.355729
0.253604 -0.000325 -0.027375
0.058010 -0.057612 0.108595
0.197685 0.191507 0.092427
-0.399832 -0.265792 0.006197
-0.232826 0.147201 0.299446
-0.377980 -0.091534 0.121623
0.516868 0.229646 0.267991
-0.023177 -0.482469 0.031302
-0.339473 -0.326187 -0.220693
0.000268 -0.240607 0.411944
0.218162 0.005931 0.021150
0.152185 -0.111713 0.517083
-0.032012 -0.063909 0.373535
0.109556 0.252876 0.190345
-0.462218 0.023615 -0.660389
0.159079 -0.120013 0.420935
0.187983 -0.198509 0.493478
-0.346619 -0.295611 0.040318
-0.181635 0.096988 -0.835983
-0.049567 0.155730 0.006699
-0.057827 -0.540504 -0.156266
0.049365 0.184103 -0.139859
0.191690 -0.049948 0.535669
0.503985 0.049024 -0.292627
0.299760 -0.127403 -0.391780
0.392741 0.318795 0.164785
0.118019 0.176511 -0.224291
0.239950 -0.297665 0.456815
0.122602 0.155905 -0.216838
0.171109 0.155113 0.196481
0.172427 0.200934 0.206413
0.260267 -0.041748 0.451782
0.306510 -0.155232 0.276431
0.278777 0.324826 0.225854
-0.400707 -0.058055 -0.750425
-0.030427 0.120075 -0.378763
0.320477 0.219018 0.047777
-0.222679 -0.035339 0.436376
0.354089 0.062400 0.279299
0.063894 -0.009523 0.006035
0.187309 -0.002682 0.039670
0.350065 0.424665 -0.029676
0.314262 0.410541 -0.030922
0.261676 0.085437 -0.007308
0.197055 0.051530 -0.197886
0.007149 0.152964 0.322808
0.001026 -0.166191 0.337490
-0.162856 0.119166 -0.691624
0.320577 0.354695 0.016690
-0.401987 0.071425 0.334998
0.121766 -0.096108 0.295646
-0.562577 -0.127357 -0.642382
-0.033097 -0.238239 0.354283
0.431404 0.027104 -0.255306
-0.116569 0.243473 0.233851
0.156073 0.006496 -0.452074
-0.356755 -0.234773 0.100259
-0.268570 0.035398 0.327363
-0.037684 -0.364029 0.075256
0.262082 0.162652 -0.108884
0.080405 0.043240 -0.438775
-0.210722 -0.512590 -0.076747
0.434483 0.134264 0.046724
-0.195041 -0.037925 0.412671
-0.070480 0.081975 0.042577
-0.165031 0.319073 -0.048192
0.438619 0.329667 0.061397
-0.211976 -0.518957 0.087142
-0.329064 0.312283 0.342225
-0.238076 -0.615299 0.038961
0.084936 -0.105335 -0.123233
-0.227044 0.219465 0.464555
0.066607 -0.009879 0.252313
-0.041147 -0.331084 0.068266
0.303603 0.377772 -0.037484
0.165392 -0.165107 -0.357984
-0.459336 -0.031473 -0.656675
0.198501 0.008710 0.523900
0.364419 0.343613 -0.049434
-0.512814 -0.090310 -0.628312
0.271964 0.528568 0.265132
-0.306590 0.266773 0.383256
0.324917 0.013192 0.116777
0.123891 -0.121889 -0.167784
-0.201948 0.143632 0.433103
0.154064 0.034084 -0.128593
-0.207247 0.206987 -0.017718
-0.383079 0.011706 -0.768244
0.222205 -0.141274 -0.352047
0.181992 0.038761 -0.313627
0.108059 -0.137454 0.528057
0.245929 -0.131964 0.438134
-0.401648 0.174422 -0.633489
0.176732 0.207583 -0.032080
-0.054711 -0.231129 -0.079070
-0.051936 -0.045289 0.052205
-0.120853 0.227346 0.241751
-0.204100 0.283417 0.381952
0.238801 0.494995 0.282998
0.128335 0.123673 0.222656
-0.103348 -0.136515 0.075772
0.246623 0.284639 0.124745
0.096325 -0.104139 0.309261
0.263063 -0.174101 0.198916
0.218827 0.019428 0.142705
-0.220322 0.080695 -0.955791
-0.401125 -0.587823 0.015815
0.072561 -0.010377 0.311848
0.004008 0.324711 -0.039140
0.269190 0.103676 0.372318
0.225785 -0.088845 0.457182
-0.234000 0.044948 -0.956390
0.257209 -0.146100 -0.328789
0.327123 0.504223 0.231088
0.258245 -0.000327 0.126327
-0.164211 0.088203 0.184748
0.055406 0.139543 -0.252769
-0.242957 -0.054423 0.095686
-0.211316 -0.521178 -0.091807
0.180118 -0.247020 0.499726
0.009139 0.203857 -0.148542
-0.192117 0.007435 -0.643919
0.292393 0.476833 0.274212
0.013400 0.068034 -0.590107
-0.050961 0.021180 0.099153
-0.189410 0.299871 -0.035957
-0.081865 -0.086845 0.125135
-0.066828 -0.197290 -0.061954
-0.398905 -0.239939 -0.561596
-0.122683 -0.442288 0.100738
0.101342 -0.135523 0.282973
-0.042250 0.344248 -0.009738
-0.220235 0.119314 0.258014
0.443372 0.314725 0.112909
0.181286 0.003877 -0.290897
0.337715 0.205463 0.066492
-0.361992 -0.117396 -0.512348
-0.194171 -0.428115 0.140358
0.181800 -0.165187 0.478957
-0.200424 0.049051 0.178135
0.155705 0.221627 -0.063447
0.251011 0.200625 0.120796
-0.052206 -0.093978 -0.728226
-0.022882 0.124366 0.350532
-0.445158 -0.506931 -0.252353
0.041456 0.156649 0.241099
0.399235 0.294438 0.180674
-0.316582 0.217432 0.397802
0.250184 0.001150 0.452597
-0.261834 0.069035 -0.753027
-0.468456 -0.457639 -0.254800
0.171549 0.176638 0.216536
0.074261 0.107088 -0.274210
-0.198661 0.149319 -0.053053
0.213139 -0.090444 -0.043246
0.186905 0.075905 0.150140
0.059843 0.065627 -0.523696
0.132982 0.207389 -0.282667
0.150794 0.077009 0.283645
-0.170855 -0.046191 -0.558771
-0.245302 0.273458 0.101289
-0.236392 0.296844 0.069943
0.132233 0.178978 0.183554
-0.042075 0.163340 0.081729
0.104767 -0.092264 0.247546
-0.396052 0.117485 0.328715
-0.144568 0.270969 0.157412
0.282166 0.074215 0.335880
-0.550363 -0.134193 -0.644749
0.042488 -0.040905 0.048368
-0.112978 -0.556874 -0.120261
0.162785 -0.102361 0.281837
-0.166973 -0.434568 0.120913
0.373986 0.010900 -0.147833
-0.237525 -0.131805 0.135803
-0.038478 -0.055858 0.130938
0.145122 0.194774 0.127906
0.024871 0.050826 0.339062
-0.469730 0.053107 0.321135
-0.124259 0.113841 -0.602313
0.107711 0.207841 0.068287
-0.214584 0.042152 -0.898016
-0.340757 -0.326980 0.032729
-0.508203 -0.047135 -0.630126
0.106056 0.187755 0.173286
-0.008113 0.303151 0.037444
0.309213 0.016732 0.124145
-0.185354 0.232212 0.162375
0.105598 -0.100598 -0.137987
-0.438645 -0.053676 0.306317
-0.233916 0.165600 0.455725
-0.186666 0.030456 -0.049234
-0.342453 -0.152675 -0.516226
0.332428 0.238719 -0.096423
0.443983 0.039300 -0.265922
0.092291 0.262092 0.075870
-0.147924 -0.328130 0.184498
-0.131101 0.323025 -0.038667
-0.398360 -0.012868 -0.717362
0.066151 0.263832 0.207841
-0.503930 -0.125974 -0.624759
0.423249 0.101554 0.018952
0.241458 0.032316 -0.223164
-0.217864 0.069536 -0.847207
-0.209354 0.239697 -0.021545
-0.035628 0.251457 0.200770
-0.411167 -0.122267 0.087845
0.273526 -0.084414 0.303675
-0.084379 -0.269436 -0.099577
-0.433751 0.048688 -0.673702
-0.401835 0.059326 0.334519
-0.066704 -0.026289 -0.217277
-0.165501 0.331180 0.068347
0.453605 0.075125 0.228040
0.379156 0.030866 0.307365
0.247968 0.243458 0.312266
0.297473 -0.256297 0.434659
-0.049260 0.323713 0.032900
-0.364104 -0.148771 0.139171
0.258354 -0.290560 0.346264
0.314696 0.255531 0.286976
-0.179029 0.085113 -0.789683
0.035202 0.012007 0.324357
-0.255895 0.093310 -0.086123
-0.066012 -0.291006 -0.101717
0.050100 0.062423 -0.548734
0.020491 -0.392622 0.049867
-0.323141 0.064511 0.441053
-0.215482 0.305014 0.120898
-0.334042 -0.234837 0.030473
-0.356720 -0.193883 0.119396
0.128290 0.028533 0.067273
0.236074 -0.005977 -0.494691
-0.102575 0.079499 0.045305
0.171185 0.015940 -0.137147
-0.057368 0.105509 0.392604
-0.337967 0.140628 -0.712823
0.244054 -0.026961 -0.024729
-0.196015 0.036594 -0.827841
0.193017 0.184867 0.211612
-0.332323 -0.310863 0.037411
0.371163 0.086401 0.309337
0.195214 -0.038818 0.015632
-0.218853 -0.419097 0.151656
-0.028316 -0.236447 0.421035
-0.090048 0.137110 0.349990
-0.197139 -0.307975 -0.180063
-0.223108 0.055669 -0.867138
0.170643 -0.016617 -0.294728
0.241916 0.202272 0.169920
-0.208329 0.035230 -0.804388
-0.182528 0.114107 0.091106
-0.210147 -0.290257 0.190230
0.422517 0.285236 0.176281
-0.176564 0.040931 0.303871
0.186448 -0.157071 0.469513
0.147310 0.100076 0.289063
0.213115 -0.155246 0.442300
-0.171881 0.021421 -0.126630
0.075474 0.277528 0.056079
0.185960 0.268419 0.062116
0.275028 0.483105 0.278633
-0.196538 0.261564 0.451717
0.340735 -0.124247 0.282213
-0.038989 -0.028638 0.141914
-0.235686 0.163064 0.454614
0.210326 -0.111529 -0.293100
-0.066026 0.100546 0.034611
0.155323 0.039064 -0.457326
0.192003 0.240751 0.020402
-0.308036 -0.599128 0.075535
-0.392940 -0.368396 -0.005448
0.342968 -0.018181 0.250143
0.219970 -0.130729 0.438088
0.015695 0.071088 0.355739
0.349726 0.219292 0.063593
0.420954 0.380162 0.105864
0.030253 0.159808 0.243601
-0.191685 -0.198543 -0.438921
-0.214729 0.162872 0.270323
0.074461 -0.095804 -0.108479
0.038684 0.230932 -0.035786
0.148534 0.173718 -0.234840
0.072270 -0.112727 0.529597
-0.301276 -0.618070 0.069516
0.098909 0.147411 0.274002
0.526018 0.029892 -0.244823
-0.009411 0.051197 0.327997
-0.108946 0.031256 -0.713640
-0.390036 -0.109280 -0.527966
-0.283459 -0.202519 0.069044
-0.451464 -0.400250 -0.232665
-0.121046 -0.042915 -0.278538
0.398107 0.081517 0.045980
-0.204082 0.026449 -0.799952
0.344337 0.252568 -0.048596
0.512711 0.079271 -0.374849
0.407697 -0.012308 0.252943
0.106336 0.082927 0.054713
-0.038974 0.092161 0.213234
0.321591 0.050948 -0.236899
0.256277 0.092374 -0.257934
-0.064696 0.047182 0.405507
-0.269159 0.258394 0.383190
-0.221836 0.110520 0.280778
-0.147436 0.113914 -0.632973
0.151889 -0.014062 0.560004
0.382249 0.117109 0.129365
0.379584 0.109181 0.279518
-0.315225 0.005179 0.413018
-0.191234 0.325964 0.095879
-0.253651 -0.345499 -0.008736
0.474096 0.158930 -0.294641
0.161545 0.052635 -0.337524
-0.209348 -0.505850 0.090840
-0.444523 0.074108 0.328349
0.273110 0.103292 0.323509
-0.409145 -0.197961 -0.566348
-0.367495 0.180674 0.393566
-0.437936 -0.007336 0.322482
0.402358 0.146737 0.105522
-0.174710 0.339919 0.082260
0.052281 0.153618 0.234060
0.093300 -0.191816 0.412723
-0.321297 0.269386 0.382267
0.348592 0.079004 0.139555
0.353867 0.176079 -0.035236
0.007447 -0.009771 0.059128
0.053360 -0.034843 -0.097063
-0.196733 0.056044 0.176338
-0.321028 -0.479586 -0.292956
0.192905 -0.014235 0.137458
0.176726 0.283432 0.178324
-0.096682 -0.364662 0.170830
-0.080196 -0.023504 -0.247666
0.056343 -0.193018 0.428622
0.284097 0.081221 0.431337
0.165314 -0.135360 0.404099
0.093340 0.011071 -0.525533
0.215452 -0.336525 0.428870
0.083447 -0.244471 0.368863
-0.200135 -0.125795 -0.550049
-0.184243 -0.218170 -0.387793
-0.377101 -0.368379 0.013646
0.389609 0.430581 -0.070632
-0.169239 0.331484 -0.091135
-0.256313 0.043433 0.395480
0.262100 -0.089610 0.444345
-0.215685 -0.137160 -0.528847
0.176860 0.113602 -0.175778
0.110807 0.226179 0.129413
0.251356 -0.053905 -0.054520
-0.001466 0.044736 0.333486
-0.358730 -0.033724 0.315576
-0.390622 -0.118779 0.122665
0.055523 0.054792 -0.533110
-0.005222 0.024179 0.397812
0.464085 0.213218 0.281292
0.249834 0.138591 -0.249498
0.397140 0.372779 0.118491
-0.094474 -0.425309 0.053600
-0.478992 -0.459892 -0.252319
0.383209 -0.118629 0.250176
0.309696 0.116368 -0.184445
0.099554 -0.137146 0.284257
0.080288 0.047526 -0.443482
0.240684 0.071581 -0.475944
-0.355469 -0.606741 0.044386
-0.059304 0.050752 -0.662811
-0.185010 0.174928 0.442854
0.112955 0.200306 -0.131386
0.353267 0.095932 0.148415
0.311448 -0.051976 0.415826
-0.450540 0.046504 0.327899
0.098957 0.209031 -0.211276
0.547251 0.231188 0.174376
0.249739 -0.124056 0.309685
-0.070699 0.000075 0.100244
0.220288 0.089785 0.129398
0.248887 -0.294330 0.354842
-0.226819 0.244027 0.124953
-0.066026 0.086415 0.033277
0.249699 -0.061303 0.450675
-0.025822 -0.205881 0.443443
0.427656 0.357402 0.104346
-0.252129 0.098518 -0.082540
-0.222370 0.063817 -0.929343
-0.227492 0.307516 0.071113
-0.007644 -0.119761 -0.529785
0.138514 0.201382 -0.095707
0.361545 0.327092 -0.049628
-0.381513 -0.138103 0.127582
0.534404 0.202076 0.258341
0.153146 0.232670 -0.123436
-0.235524 0.124924 0.326438
-0.059291 -0.096746 -0.101611
-0.119396 0.173453 0.442940
-0.071657 -0.435386 0.050773
-0.006926 -0.467087 0.026236
-0.366373 0.000280 -0.819868
-0.074163 -0.057678 0.396314
-0.171202 -0.488722 0.095690
0.119378 -0.099580 0.304558
0.299881 0.239320 0.036454
-0.144404 -0.352517 0.168804
0.127430 0.377167 0.161703
0.278095 -0.090513 0.304155
-0.044460 -0.085838 -0.486552
0.182753 -0.129631 0.452073
0.310909 0.360016 0.018618
0.265265 0.127686 0.339683
-0.010768 -0.133928 -0.101611
-0.331180 0.287125 0.369874
-0.378533 -0.546579 0.098787
0.153793 0.165164 0.205527
-0.042523 -0.263298 -0.103028
0.073595 0.173292 -0.108516
-0.057009 -0.029401 -0.002661
-0.031507 -0.125970 -0.135029
0.354608 0.059803 0.073598
-0.173551 0.116558 -0.718316
0.012220 0.078916 0.361119
0.271912 0.007544 -0.055766
-0.077534 -0.475100 0.036986
-0.475826 -0.055756 0.289052
0.197475 -0.001191 0.033630
0.264591 -0.120752 0.307875
0.052945 0.015918 0.320658
0.050266 0.158376 0.231894
0.303476 -0.119096 0.294308
-0.451277 -0.150873 -0.574943
0.303341 -0.107386 -0.365898
-0.343468 0.174523 0.399932
0.240257 0.106975 -0.464044
0.192917 0.008308 0.465611
-0.338250 -0.324427 -0.223307
0.427709 0.146108 0.062835
0.400358 0.080062 0.068277
0.198235 -0.008285 0.031068
-0.188843 0.044340 0.419374
0.157788 -0.113749 0.400211
0.032254 0.194681 -0.162229
0.380340 0.310900 0.173956
0.171942 -0.012549 0.118118
0.029065 0.028175 -0.458180
-0.119283 0.031992 0.026589
0.009726 0.073686 0.065616
-0.307139 -0.422633 0.096958
-0.016341 -0.416527 0.049565
0.207112 -0.050530 0.001202
-0.347889 0.030866 0.323159
-0.238477 0.033021 -0.904586
0.305157 -0.114849 -0.373174
0.106737 0.069160 0.045681
-0.248107 0.069594 0.402585
-0.368518 -0.029908 0.320278
0.153296 -0.238313 0.503979
-0.016006 -0.192205 -0.084985
-0.205844 0.077924 0.226340
-0.044464 -0.032043 -0.701312
0.102008 0.093897 0.310482
-0.482406 -0.454044 -0.249820
0.163757 -0.127935 0.420136
-0.237608 0.270379 0.077845
-0.251407 0.054315 0.270652
0.381396 0.316418 0.168782
0.180626 0.009245 -0.184716
0.075574 0.113457 0.076654
0.085409 0.237728 -0.225402
-0.160091 -0.428099 0.108969
-0.066943 0.143751 -0.466132
-0.136872 -0.042061 0.156147
0.172200 0.005493 0.052940
0.156771 -0.036803 -0.175210
0.321991 0.024632 -0.123464
0.259080 0.090061 -0.005010
-0.445283 -0.208775 -0.600530
-0.187432 0.050630 0.063409
-0.114461 -0.018148 0.150390
0.205380 0.174626 0.046807
-0.202066 -0.414305 0.033965
-0.370166 -0.456453 -0.267810
0.542075 0.282172 0.247029
0.023643 0.094169 -0.065541
-0.064987 -0.021368 0.156358
-0.099975 0.299468 -0.037627
0.115501 -0.114762 -0.158625
0.226848 -0.177625 0.292314
0.112693 0.223642 -0.254291
-0.089029 0.118006 -0.552688
-0.187958 -0.040519 -0.577406
-0.256569 0.033487 0.331516
0.108901 0.333214 0.150527
-0.191817 0.089071 0.339901
-0.000493 -0.174756 0.435598
0.020596 -0.140584 0.359481
0.037598 0.212296 -0.088373
0.020313 0.127154 -0.231907
-0.042790 -0.242563 0.377767
-0.159829 0.198884 0.374853
0.205730 -0.204766 0.476526
0.222582 -0.140507 -0.320303
0.222987 -0.029830 -0.306329
0.301282 0.002086 0.100445
0.097920 0.134266 0.090669
0.322545 0.349525 0.226646
-0.369846 -0.009454 -0.815251
-0.254151 -0.190133 0.107851
0.026025 0.144275 -0.230222
0.063061 0.065482 -0.274355
0.421912 0.022230 -0.251544
-0.083512 -0.496921 -0.102805
-0.349108 -0.239662 -0.564230
0.541482 0.270037 0.183288
-0.071677 -0.374847 0.078774
0.246568 -0.186779 0.275809
-0.019952 -0.050149 -0.728256
-0.178556 -0.089100 -0.606725
-0.115258 0.055831 0.405934
0.009109 0.205678 -0.134954
-0.428440 -0.174101 -0.563534
-0.402103 -0.562867 -0.011329
-0.232680 0.034392 0.399300
-0.239412 0.052155 -0.977798
-0.137406 0.256953 -0.005424
-0.196321 0.102949 -0.851309
-0.297986 0.029899 -0.865785
-0.020503 -0.083112 -0.517684
-0.258192 -0.105467 0.138609
-0.012803 -0.082827 0.370908
0.398570 0.314981 0.056449
-0.331586 -0.383318 -0.258428
0.132369 0.074267 -0.375821
-0.029053 -0.225532 -0.082864
0.061001 -0.216267 0.345743
-0.528233 -0.134014 -0.636303
-0.005700 -0.073343 -0.553067
0.093533 -0.101582 0.313719
0.401002 0.314742 0.166298
0.377576 -0.134019 0.258222
-0.309405 0.313955 0.353910
0.043428 0.166853 0.142296
-0.236934 -0.128923 0.134775
0.019733 -0.432897 0.025862
0.012688 0.057394 -0.581232
0.090847 -0.078970 -0.207535
0.170880 0.172979 -0.018106
0.293445 0.183827 0.154443
-0.043220 -0.177841 -0.529518
-0.384227 -0.528975 0.109722
-0.400528 -0.348120 -0.001310
0.259112 0.013494 0.129868
-0.373950 0.123994 0.317669
-0.080361 -0.485072 0.020081
0.035529 0.120042 -0.263217
-0.258134 -0.001971 0.425537
0.250435 -0.005166 -0.515945
0.441593 0.344307 0.066133
0.073559 0.049663 0.054166
0.037643 -0.129556 0.418360
0.225357 -0.002728 0.007882
0.100969 0.276550 0.209670
-0.033363 -0.061773 -0.481124
0.249540 -0.050238 0.076978
0.162901 0.004018 -0.480189
-0.349751 -0.242584 0.029216
0.268320 0.459484 0.278862
0.228987 -0.018664 0.454348
0.177715 -0.191629 -0.407048
-0.095498 0.034747 0.030498
-0.468138 -0.059350 0.309119
-0.225073 0.176698 0.374492
0.167928 0.010445 0.144567
-0.196906 0.107486 -0.840488
0.223375 -0.116695 -0.299226
0.275257 0.012304 -0.180029
-0.338394 -0.458623 0.109063
0.011905 -0.006302 0.059415
-0.380931 -0.149816 0.128932
-0.188870 0.102202 -0.826156
0.136976 -0.108443 0.358041
-0.097605 -0.226624 -0.071736
0.391211 0.344618 0.154862
0.451053 0.158957 0.286307
0.100023 0.218483 -0.222576
0.002047 0.010447 0.392323
-0.179692 -0.006958 -0.595035
0.213252 0.160368 0.169451
0.210544 0.255633 0.046718
-0.390433 -0.363848 0.008602
-0.049569 -0.068463 0.127095
-0.030259 -0.018353 0.075351
-0.311814 -0.150881 0.140412
0.277001 0.097376 -0.523592
0.061166 -0.163936 0.250263
0.283111 0.174689 0.034892
-0.061087 0.184090 0.245631
0.110103 0.143868 0.272763
-0.022583 -0.159017 -0.540812
-0.080225 0.292282 0.102728
0.123473 0.241631 -0.304345
-0.014867 0.149861 -0.334706
-0.015090 -0.098577 -0.134189
-0.089431 -0.257776 -0.086197
-0.043357 -0.334112 0.073593
0.097104 0.198336 0.078913
-0.044046 0.229514 0.218916
-0.086884 -0.496277 -0.100768
-0.159170 0.017593 -0.545653
0.333863 0.449762 0.242795
-0.285588 -0.646631 0.016039
-0.166018 0.121820 -0.714052
0.074973 0.143575 0.300615
0.272879 0.177999 -0.136361
0.282391 0.245866 0.038582
0.420770 0.309979 0.058591
0.167194 -0.161669 0.501833
0.231798 -0.310582 0.367322
-0.064489 0.068024 0.269691
0.439578 -0.017312 -0.221906
-0.592943 -0.111594 -0.648372
0.146546 0.127334 0.203429
0.027848 -0.030981 -0.097923
-0.033152 0.139284 -0.350461
0.163104 -0.312374 0.423077
-0.162942 -0.038258 -0.526629
0.506597 0.124916 -0.295107
0.054874 -0.009468 0.521463
0.088850 -0.193275 0.412623
-0.048238 0.097225 0.142924
0.004810 0.087511 -0.050221
0.057282 -0.379991 -0.027623
0.186324 0.245346 0.185677
0.172279 -0.176081 0.496921
0.454902 0.229413 0.290054
-0.135155 0.190013 0.045271
0.236177 0.046667 -0.479469
-0.049690 -0.212246 0.444001
-0.414216 -0.537002 0.086001
0.097564 -0.000884 -0.530334
-0.158149 0.259948 0.189552
0.448595 0.001032 0.247277
0.203238 0.042656 0.059258
-0.192171 0.235196 0.156491
0.008139 -0.144591 0.358499
0.133749 0.297643 0.199564
0.289557 -0.005935 0.104941
0.010249 -0.242269 0.381516
-0.220082 0.039909 -0.819884
0.327440 0.501768 0.243727
-0.227508 0.036483 -0.816548
-0.002272 0.130608 -0.341603
-0.062724 0.247207 0.221731
-0.144103 -0.548782 -0.173932
-0.018273 0.065847 -0.621058
0.554212 0.255114 0.222331
-0.125254 0.189847 0.246957
-0.344023 -0.263842 0.037607
-0.051753 -0.357743 0.080238
0.481923 0.149441 -0.283816
0.365188 0.405367 -0.059497
0.033025 0.063156 -0.573688
-0.394116 -0.210980 -0.565845
-0.192069 -0.054859 -0.678487
0.425098 0.098076 0.037427
0.153046 -0.043091 -0.177137
0.452422 0.038194 0.262827
-0.370772 -0.591247 0.056937
-0.150031 -0.554732 -0.165005
-0.189234 0.034947 0.284249
0.034248 0.099244 -0.264375
0.252858 -0.195434 0.247179
0.120372 0.061201 -0.413666
0.230100 -0.198416 0.466533
0.426596 0.110105 0.065136
-0.409689 -0.577080 0.017497
-0.059748 0.047110 0.404592
0.181133 0.192138 0.113186
0.237452 -0.068896 -0.286426
-0.495795 -0.062252 -0.631700
-0.104749 -0.534340 -0.105827
-0.473292 0.023854 0.217986
0.060434 0.050821 -0.084793
-0.015678 0.057056 0.095226
-0.265595 0.060590 0.403792
-0.218219 0.307442 0.114096
0.078324 0.065770 -0.101161
-0.091885 0.129708 -0.503717
0.026442 0.189619 -0.170119
0.070591 -0.042349 0.557401
-0.390310 0.151902 -0.710538
0.195937 0.455405 0.251917
-0.360035 -0.095275 0.139828
0.034103 -0.225748 -0.111038
-0.042062 0.168607 0.045215
-0.048313 0.143805 0.134028
-0.159543 -0.028224 -0.461547
0.169144 -0.091376 0.512754
-0.185747 0.011457 0.414440
0.265262 -0.300107 0.384857
-0.031633 -0.053427 0.127249
0.157785 0.021360 -0.457195
-0.172670 0.008721 -0.307369
-0.047466 -0.122355 -0.490798
-0.179257 0.084597 0.188881
0.039474 0.022242 0.059519
-0.182659 -0.395673 0.020235
0.128340 0.032050 -0.100966
0.124435 -0.235903 0.365180
-0.167109 0.090405 -0.772703
0.096587 -0.242521 0.368672
0.164623 0.171157 -0.204688
0.033161 -0.028737 -0.009995
-0.337509 0.121141 0.331391
-0.151081 0.281892 0.343630
0.439566 0.025029 0.223715
-0.202456 0.022281 -0.774861
0.040280 -0.367826 0.048824
-0.569833 -0.130360 -0.645980
-0.174204 0.250108 0.189744
-0.270985 0.165720 0.381745
0.187868 -0.143757 -0.352483
-0.133424 -0.050642 -0.386260
-0.310310 -0.013088 0.415612
0.093970 0.255938 0.166951
0.354637 0.420846 -0.040983
0.042483 0.156495 0.242209
0.087654 -0.072577 0.203343
-0.243206 0.064222 0.393447
-0.178147 0.208333 0.382000
-0.132707 -0.093325 0.375030
-0.064392 -0.230155 0.328631
0.280572 0.194056 0.062116
-0.389525 -0.141239 0.118814
-0.410061 -0.057274 0.294739
-0.036252 -0.472307 0.038294
-0.140182 0.348243 -0.081339
0.098999 -0.135544 0.379801
-0.004096 -0.453854 0.028835
0.088187 0.183958 -0.192184
-0.293738 -0.299526 0.040898
0.229377 0.107197 -0.219650
-0.132105 -0.528802 0.077627
-0.054966 -0.052712 0.036190
0.162181 -0.013155 -0.467126
-0.190987 0.049870 0.113441
-0.042162 0.071553 0.267275
-0.157089 -0.088210 0.371264
-0.024692 -0.048188 -0.719069
0.067972 0.025227 0.298290
-0.195444 0.119672 0.319220
-0.324161 -0.370972 -0.257881
0.288187 0.039266 -0.570719
-0.203422 -0.038787 0.395522
0.116881 0.047882 0.298466
0.262421 -0.300848 0.384653
0.218935 0.096047 0.413404
0.001667 0.132471 -0.277021
-0.144550 0.273077 0.175034
0.157291 0.002608 0.562095
0.431541 0.319334 0.061850
-0.453320 -0.042228 -0.646191
0.088236 0.209512 0.083418
-0.000239 0.145996 -0.054566
0.056567 0.170807 0.167649
-0.189664 -0.047178 -0.665360
-0.186985 0.059669 0.332335
0.173789 -0.022264 -0.303904
0.118327 -0.095763 0.274998
-0.075487 0.123546 -0.324892
0.328467 -0.145216 0.272330
0.330440 -0.162855 0.248234
0.011206 -0.203143 0.440966
-0.176053 0.227191 0.443583
-0.165166 0.014151 -0.191165
0.076980 -0.051344 -0.520803
0.391573 0.151450 0.118583
-0.122270 0.204093 0.027068
0.214846 0.048764 0.055426
0.099648 0.191618 0.181689
0.282810 0.221827 0.293549
-0.247322 0.158813 0.369224
0.047427 0.174083 -0.088804
0.419459 -0.004476 0.242965
-0.062619 -0.210013 0.393857
-0.050822 -0.219068 0.451063
0.216809 -0.075022 -0.031629
0.235754 -0.012360 -0.005081
-0.109589 -0.533030 -0.101849
-0.107394 -0.309828 0.188918
0.112935 0.012280 -0.086324
0.060347 0.108072 0.086617
0.061960 -0.055604 0.118389
-0.054775 0.117322 -0.429645
-0.012952 0.032739 -0.086019
-0.043195 -0.077996 0.344640
0.407951 0.075431 -0.244640
-0.196765 0.233824 0.179838
0.448981 0.040778 0.223328
-0.071506 -0.237419 -0.080644
-0.129794 0.352912 0.106839
0.454706 0.081595 0.238456
-0.337192 -0.492604 -0.298983
-0.054778 -0.077592 -0.456589
-0.170704 -0.036660 -0.528220
-0.321169 -0.015378 0.323618
0.546812 0.235068 0.227291
-0.335675 0.298625 0.353092
-0.195875 -0.334332 -0.129939
-0.176846 0.082380 0.063534
-0.134624 -0.139803 0.071242
-0.022759 -0.186493 0.433180
-0.285252 0.076992 -0.742550
-0.303655 0.321122 0.322736
0.266047 0.026866 -0.210951
-0.035415 0.208148 0.320322
-0.029594 0.100621 0.214331
-0.166493 -0.052648 -0.468460
-0.191913 0.244493 0.190222
-0.229890 -0.562030 0.077555
0.009171 -0.179725 0.328352
0.091147 0.135361 0.299184
-0.317055 -0.170549 0.137472
-0.028861 -0.087469 -0.159050
