0.158187 0.326995 -0.071723
-0.070497 0.120784 -0.113140
0.191462 0.318984 -0.460815
0.039375 -0.174914 0.512971
-0.072411 0.081581 0.357220
0.044529 0.123702 -0.497250
-0.097421 -0.157070 0.928113
-0.155847 -0.239661 -0.183247
0.173654 0.288532 -0.098288
-0.040714 -0.093961 -0.140280
-0.034944 0.194886 -0.242983
-0.007888 -0.091062 -0.122885
-0.102658 -0.192485 0.889076
-0.037663 -0.214826 0.776299
-0.030625 0.164471 -0.334546
-0.093384 0.069496 -0.562280
0.007785 0.282924 -0.370657
-0.225220 -0.217729 -0.137885
-0.166240 -0.060440 -0.121531
-0.094510 -0.016035 -0.288536
0.093139 0.189351 -0.181012
0.261693 -0.342989 0.811988
-0.106461 -0.148289 -0.180976
0.128063 0.249626 -0.135302
0.059034 0.198081 -0.184282
0.020965 -0.284221 0.462750
0.112299 0.087249 -0.427703
-0.022428 0.148636 -0.354631
0.140960 0.033337 -0.799964
0.040413 0.133962 -0.556582
0.021678 0.223845 -0.407239
-0.043659 0.189571 -0.275297
0.210641 0.232536 -0.152859
-0.113901 -0.093131 0.988981
0.232931 0.195368 -0.190011
0.113181 0.106710 -0.435093
0.047760 0.365211 -0.344624
0.042940 -0.003937 -0.118215
0.102049 -0.270246 0.854857
-0.174682 0.071663 -0.547813
-0.106301 -0.231285 0.881011
-0.030556 0.023763 -0.080818
0.212236 0.227325 -0.157100
-0.071996 -0.015344 -0.128086
-0.278484 -0.018459 -0.550353
0.097068 0.212638 -0.157024
-0.188543 -0.246712 -0.166960
-0.124666 -0.071191 -0.113282
-0.092693 -0.166161 -0.192715
-0.042920 0.020685 0.485998
0.160982 0.267441 -0.112163
-0.046210 -0.285992 0.417840
-0.014039 -0.139310 0.762661
0.222513 0.299261 -0.500014
0.094974 -0.012483 0.396659
-0.281719 -0.141066 -0.082288
-0.007769 0.158328 -0.400950
-0.135774 -0.348451 -0.286596
0.098618 -0.241100 0.901672
0.110375 0.078323 -0.683934
0.084382 0.078993 -0.618358
0.029253 -0.003413 0.424635
0.088630 -0.337055 0.371570
-0.123181 -0.108981 0.971887
0.197642 -0.289674 0.855783
-0.036284 -0.059988 0.633772
-0.052317 0.105329 -0.308257
-0.085343 -0.163328 -0.310060
-0.024524 0.172437 -0.334230
-0.024676 0.149369 -0.351860
-0.063221 0.097730 -0.531310
-0.220762 -0.303956 -0.172900
0.032410 0.139792 -0.477905
-0.080302 0.036026 0.256041
-0.082589 -0.199446 -0.208289
0.002402 0.025425 -0.661913
-0.147455 0.008713 -0.655797
0.108485 -0.275494 0.460208
0.165755 0.197745 -0.514752
0.055228 -0.161528 -0.173176
0.149889 0.085833 -0.493411
0.107579 -0.322322 0.811811
0.087127 0.304174 -0.088430
0.329733 0.225131 -0.116063
-0.009122 0.098348 -0.505673
-0.236249 -0.348803 -0.216142
0.032836 -0.110020 -0.115413
-0.115464 0.037198 0.320308
0.082235 0.045729 0.506251
-0.088127 0.079621 -0.295940
-0.148003 -0.070097 -0.132599
-0.045355 0.030415 -0.614718
0.064252 0.218118 -0.456280
-0.025106 -0.098244 0.716606
0.175230 0.174926 -0.184545
0.049106 -0.180637 0.512086
-0.176884 -0.346810 -0.217164
0.064405 0.161311 -0.499441
0.020525 -0.280391 0.891304
-0.046595 -0.155801 0.823652
-0.067375 0.163899 -0.121121
-0.067237 -0.281283 0.821356
-0.176375 0.050870 -0.572507
0.066936 0.186674 -0.194138
0.002981 0.010658 0.399759
-0.277855 -0.284667 0.949768
0.046069 -0.244103 0.854831
0.136434 0.060746 -0.654241
-0.225621 -0.040542 -0.615606
0.013760 0.030611 -0.055076
-0.108584 0.047227 -0.590430
-0.049001 0.070734 0.386271
-0.067306 -0.135980 0.544523
-0.021816 0.277977 -0.077568
0.018212 -0.337736 0.408840
-0.224589 -0.327259 -0.192240
0.087526 -0.195132 0.472224
-0.168496 -0.050873 -0.092507
0.027943 0.086740 -0.574396
0.307972 0.029610 -0.453594
-0.228657 -0.060342 -0.042121
0.111487 0.042180 -0.726747
-0.145800 -0.127524 -0.150570
0.079053 -0.019343 -0.373509
-0.073072 0.091118 -0.554157
0.094430 -0.309400 0.419446
0.026228 -0.034260 -0.328730
-0.026789 -0.148409 0.739054
-0.057542 0.085265 0.318118
-0.113389 0.040038 -0.098543
0.105020 -0.180959 0.477272
0.038886 -0.129506 -0.153281
-0.018878 0.103160 0.424444
-0.204547 -0.028782 -0.627643
0.003714 -0.232201 -0.380442
-0.071751 -0.219261 0.866511
0.060499 -0.080607 -0.370581
0.185629 0.025817 0.504796
-0.066180 0.252162 -0.094164
-0.023469 -0.093145 -0.353794
0.096606 0.134404 -0.247217
0.059902 0.287399 -0.418751
-0.069200 0.150520 -0.033511
-0.124323 0.040907 -0.072800
-0.048183 0.001310 0.476335
-0.029405 0.364836 0.029118
-0.043916 0.328591 0.008268
0.016028 -0.238656 0.860813
0.333717 -0.031879 -0.506432
0.087400 0.207463 -0.168511
-0.002713 -0.149923 0.743400
0.275071 0.252393 -0.090054
-0.019462 -0.247643 0.467258
-0.162215 -0.049705 -0.128161
-0.024018 0.119908 0.560446
0.095012 0.250262 -0.460853
0.241340 -0.286276 0.873890
-0.048208 -0.081825 -0.126968
-0.030357 0.194264 -0.217656
0.090205 -0.284386 0.844828
-0.220146 -0.223499 0.967629
-0.295663 -0.075557 0.062244
-0.105252 -0.124212 -0.266120
-0.074431 0.155957 0.023254
-0.013589 -0.258070 -0.386270
-0.008006 0.007888 -0.341370
-0.187974 0.051570 0.035639
0.322027 -0.045544 -0.511026
0.038905 0.342122 -0.009066
0.044472 -0.088202 0.848780
-0.138220 -0.242342 -0.193925
0.168898 0.058188 -0.491519
-0.080667 0.205103 -0.144355
0.238819 0.249321 -0.123223
-0.119272 0.050476 -0.044223
-0.047739 0.197141 -0.195869
0.333334 -0.028156 -0.502911
0.045700 0.372427 -0.343573
-0.111479 -0.111184 0.963299
0.025298 -0.240911 0.466132
-0.118912 -0.210163 0.890239
0.224161 -0.361328 0.744493
-0.120770 0.048177 -0.082651
-0.049189 -0.269698 0.446713
-0.082329 0.064734 -0.307639
-0.128414 -0.253712 -0.211266
-0.100079 0.107475 -0.089926
0.062729 0.103610 -0.611940
-0.056409 0.068450 0.344793
-0.128483 -0.135789 0.556657
-0.054257 -0.009636 -0.124040
-0.160907 -0.077298 -0.136440
0.010242 0.120367 -0.427382
-0.034084 -0.137437 0.785822
-0.038160 -0.067701 -0.313212
-0.090546 0.256551 -0.076205
-0.213506 -0.059043 -0.052129
0.219937 0.078055 -0.480961
0.182159 0.006487 0.486078
-0.313529 -0.105242 0.024390
-0.210519 -0.313130 -0.179843
-0.048744 -0.265256 0.454042
0.288288 -0.032388 -0.503638
0.155129 0.043872 0.528711
0.050951 0.034211 0.469685
-0.077805 0.303551 -0.014126
-0.118560 -0.001474 -0.661317
-0.154693 -0.238955 0.920535
-0.024622 0.030881 -0.607363
0.044250 0.255614 -0.137141
-0.251067 -0.337479 0.905974
-0.006120 -0.279025 0.419887
0.219390 0.311969 -0.053855
-0.015421 -0.018284 -0.137297
0.138738 0.179641 -0.181503
0.103542 0.103792 -0.549351
-0.210369 -0.340367 -0.210774
-0.191965 -0.078688 -0.108402
-0.014820 -0.148050 0.518028
-0.059755 -0.222208 0.858765
0.280135 0.215586 -0.149337
0.103225 0.306821 -0.070950
-0.074722 0.147943 0.032393
0.242619 0.343457 -0.425535
0.013299 -0.163603 -0.206241
-0.173510 0.061974 -0.552452
-0.046969 0.090869 0.292835
-0.022731 -0.036547 -0.319141
-0.040813 -0.035528 0.523778
-0.068153 -0.110922 -0.184885
-0.070379 0.156531 0.057703
-0.026812 -0.152234 -0.337978
-0.251935 -0.135698 -0.109350
0.001946 -0.138530 -0.339821
-0.095590 -0.293763 0.826642
-0.122044 0.025797 0.210129
-0.015713 -0.216727 0.758764
0.116397 -0.303825 0.847817
0.005071 -0.186522 0.793254
-0.066834 -0.153740 0.510373
0.112061 0.223799 -0.148258
-0.086473 -0.239422 0.864704
-0.041425 0.132585 0.465611
0.341401 0.229444 -0.131568
-0.055891 0.152104 0.047244
-0.177629 -0.371055 -0.297913
-0.002429 -0.202103 0.771222
-0.235281 -0.138395 -0.118218
-0.045554 -0.111277 -0.162672
-0.090397 -0.078952 -0.253626
0.032179 -0.291714 0.915039
0.087447 0.303879 -0.079615
0.080190 0.095024 -0.588767
0.344204 -0.001827 -0.489988
-0.210953 -0.021184 -0.602512
-0.006165 -0.242904 0.465542
0.106665 0.088191 -0.666333
0.025835 -0.303297 0.891515
-0.264055 -0.067137 0.022046
0.246739 0.009562 0.469687
-0.186317 0.091117 -0.454838
0.046653 0.372667 -0.341269
0.045015 -0.319128 0.422717
-0.051017 0.022344 -0.642925
-0.115489 -0.195745 0.895037
0.311636 0.329735 -0.022512
-0.070640 -0.307516 0.789256
-0.045003 -0.298041 -0.408365
-0.075833 0.168876 -0.120174
0.077609 0.115187 -0.288655
0.075126 0.158108 -0.506225
0.000864 -0.287449 0.460943
0.088103 0.065040 0.528663
-0.041827 -0.034517 0.570033
0.233779 -0.024831 -0.520605
0.263078 0.332110 -0.447349
-0.175769 -0.031851 -0.013571
-0.085934 -0.137167 -0.313681
-0.017461 0.083353 -0.346237
0.016458 0.106728 -0.438709
0.076860 0.115314 -0.562535
-0.038989 0.095807 0.400516
0.013992 0.306751 -0.355589
-0.071674 0.172916 -0.131426
0.024426 -0.084279 0.860898
-0.045276 -0.185504 -0.207428
0.202897 0.147290 -0.234671
-0.026901 0.079947 -0.560931
-0.074380 0.043503 -0.243265
0.027973 -0.174807 -0.206410
0.077252 0.102459 -0.581257
0.055888 0.122029 -0.511575
0.156177 0.016869 0.501344
0.331505 0.317542 -0.022893
0.195695 0.317233 -0.061678
-0.051196 -0.221493 0.765869
0.089977 0.096023 -0.639203
-0.064194 0.111100 0.429880
0.269184 0.055290 0.437360
0.262347 -0.006225 0.438648
0.271698 0.068285 -0.469344
-0.048485 -0.260894 0.826497
-0.004778 -0.048419 -0.335175
-0.062902 0.174483 -0.194971
0.033715 0.296204 -0.386588
-0.318246 -0.136377 -0.023745
-0.053454 0.140062 0.164478
0.245737 0.320463 -0.458005
0.305200 -0.062144 -0.528769
0.060196 0.312855 -0.380515
0.064856 -0.015616 -0.372233
-0.075304 0.311113 -0.031955
-0.080160 -0.247799 -0.248256
-0.326467 -0.133705 -0.009636
-0.185453 -0.269355 0.925117
0.134011 0.220666 -0.518119
-0.048546 0.066905 0.355275
-0.065620 -0.150052 0.520725
0.122408 0.133587 -0.432855
0.363032 0.261017 -0.072178
-0.026418 0.062285 0.531283
-0.040100 0.069583 0.416807
0.037764 0.132424 -0.448565
0.055930 -0.143429 -0.156712
0.038493 -0.242493 0.483879
-0.072411 0.171232 -0.042969
-0.244027 -0.051479 -0.619071
-0.014570 0.131403 -0.393568
-0.058628 -0.221062 0.778879
0.166618 0.174202 -0.189058
-0.121891 0.031705 -0.124654
-0.125143 -0.326912 -0.261676
0.367534 0.255001 -0.115005
-0.018391 0.179883 -0.329027
-0.040922 0.099430 -0.473700
0.036191 -0.258638 0.873313
0.118104 0.069387 -0.441475
0.256599 0.272505 -0.080016
-0.057228 0.219058 -0.097186
0.303682 0.018218 -0.465022
0.213283 0.288251 -0.490091
0.098067 0.122270 -0.261039
-0.011798 0.125033 -0.464848
-0.011218 -0.025719 -0.144744
-0.006334 -0.150289 0.767654
0.126913 0.042280 -0.646229
0.056880 -0.084782 0.563629
-0.042854 0.168240 -0.291644
0.037227 0.187710 -0.450219
-0.002390 0.188168 -0.194360
-0.030292 -0.163154 -0.195527
-0.128526 -0.141512 0.953402
0.018531 0.166192 -0.430430
0.014984 -0.226187 -0.387299
-0.030547 0.153650 -0.361050
0.330207 0.241626 -0.078603
-0.127357 0.035834 0.294396
0.063733 0.117572 -0.267516
0.018159 0.061792 0.530837
0.030835 0.207448 -0.464346
0.014909 0.115708 -0.491999
-0.104736 -0.140431 -0.308473
0.311483 0.013248 -0.467426
-0.093175 -0.176109 0.901343
0.346984 -0.009240 -0.501902
-0.106828 0.038027 -0.094047
0.027619 -0.118048 -0.402039
0.063277 -0.009549 0.407080
0.089987 -0.035961 -0.386217
-0.104210 -0.309447 -0.269098
-0.058645 0.249218 -0.102538
-0.117219 0.220589 -0.104781
-0.099304 -0.134984 0.942648
-0.039189 -0.082142 0.683288
0.115982 0.069477 -0.657625
-0.173537 0.011774 -0.073434
0.340724 0.284523 -0.043063
-0.020624 0.044104 0.532671
-0.035814 0.273499 -0.079112
-0.088793 -0.214542 0.868866
0.221727 -0.012975 -0.501516
-0.081174 -0.137013 0.551512
0.026236 -0.284036 0.823617
0.230622 0.062744 0.540106
-0.019011 -0.230288 -0.363876
-0.186969 -0.366860 -0.241167
-0.052421 0.173104 -0.019610
-0.193859 -0.028951 0.004953
0.026847 -0.261741 0.846494
0.080153 -0.003246 0.341005
0.242224 0.102772 -0.444314
-0.011918 0.137188 -0.404944
0.030190 0.017290 0.467382
0.040486 -0.065009 -0.353513
-0.154021 -0.055257 -0.112985
-0.070794 0.149805 -0.041374
-0.135619 -0.095995 -0.231586
0.159206 0.031805 -0.642919
0.142012 0.148522 -0.232732
-0.017325 -0.139054 0.511781
-0.106875 -0.270472 0.849836
-0.016745 -0.153548 0.772174
0.214553 0.287241 -0.088365
0.136743 0.059945 -0.643380
-0.023152 0.028257 -0.332289
-0.106728 -0.192193 0.880846
-0.198684 0.081669 -0.506093
0.029651 0.198505 -0.468804
-0.015972 -0.154967 0.507416
-0.041953 0.251236 -0.108542
0.116433 0.017429 0.489911
0.074525 -0.017358 -0.372855
-0.033085 -0.039132 0.597170
-0.050965 -0.252911 0.475895
0.059180 0.052411 0.515052
-0.073674 -0.143757 -0.191600
0.008739 -0.236004 0.479657
-0.089716 -0.073129 -0.123386
0.023291 0.309958 -0.050736
0.237830 -0.355022 0.729257
0.114973 -0.271803 0.867660
-0.136745 -0.138522 0.554794
-0.080190 -0.119083 0.949400
-0.032474 -0.184841 -0.340105
0.060807 0.340670 -0.017358
-0.102635 -0.012874 -0.123813
-0.030262 0.169188 -0.382228
-0.100858 0.064957 0.345763
-0.126472 -0.292234 -0.226120
-0.117477 0.029165 -0.114798
0.031155 -0.082850 -0.371401
-0.068030 0.025344 -0.645712
-0.009877 -0.178586 0.799501
0.166307 0.202229 -0.515878
0.009707 -0.208826 -0.224608
0.021464 0.098519 -0.341617
0.038412 0.286022 -0.092993
-0.253457 -0.223736 -0.130989
-0.041616 -0.135172 0.782111
0.354761 0.300868 -0.024492
-0.102137 -0.175130 0.905231
0.166841 0.068760 -0.465270
-0.101111 0.092485 -0.478558
-0.243229 -0.117145 -0.085959
-0.060604 0.133061 0.071645
0.029936 -0.105391 -0.393931
-0.157583 -0.035017 -0.076789
0.233127 -0.328173 0.836380
0.315605 0.250290 -0.068664
-0.062148 0.134157 0.151176
0.275234 -0.046221 -0.525034
0.057647 0.070823 -0.379805
-0.036162 -0.185268 -0.205871
0.181953 -0.286980 0.914235
-0.053558 0.052164 0.415084
0.010932 -0.170583 0.792519
-0.034609 0.162224 -0.383372
0.060492 0.023780 -0.332798
-0.023392 -0.108065 -0.357190
0.009068 -0.031141 -0.155779
0.065311 0.318664 -0.049218
-0.013362 -0.132574 -0.187200
-0.067088 -0.245583 0.852146
0.154490 0.029313 -0.642595
0.155641 -0.353460 0.764303
-0.076920 0.153455 -0.023392
0.112126 0.043785 -0.648715
0.001771 0.095007 -0.484922
0.037157 -0.237769 0.485103
-0.046498 -0.178058 -0.203591
0.029898 0.140685 -0.507323
-0.050473 0.156653 -0.314205
-0.125770 -0.173227 0.922336
0.090265 -0.086044 0.517406
-0.052738 0.285063 -0.052023
-0.138759 -0.017557 -0.133318
-0.013039 0.097688 -0.373558
-0.153934 -0.290396 0.901196
0.164281 0.034986 -0.631585
0.194825 -0.285225 0.912137
0.133046 0.072309 -0.677154
-0.082245 0.096959 0.319323
0.228564 0.292911 -0.076796
0.056219 -0.335412 0.391833
-0.108975 -0.213123 0.883509
0.088925 -0.135538 -0.439925
-0.081595 -0.106432 -0.286209
-0.292878 -0.146148 -0.060745
-0.019231 -0.212262 -0.235095
-0.051460 -0.064533 -0.299375
-0.070867 0.016696 -0.658815
-0.122514 0.034032 0.206961
0.214069 -0.362270 0.734719
-0.115526 -0.202692 0.889082
0.137900 0.227524 -0.146785
0.193008 0.189082 -0.177617
0.059687 -0.075408 -0.365369
-0.131335 -0.161089 0.935111
0.064220 -0.005778 -0.098916
-0.037814 -0.202788 -0.237732
0.063086 0.105846 -0.611326
0.102247 0.325614 -0.043865
-0.077680 0.088480 0.372874
0.116420 0.190773 -0.515818
0.110777 0.249327 -0.473279
-0.250800 -0.024849 -0.567216
0.171701 0.159835 -0.204020
0.211998 0.042918 0.521377
0.247149 -0.003469 0.435805
0.018834 0.029856 -0.054815
0.128717 0.089910 -0.461792
0.023322 -0.019491 -0.144118
-0.031609 -0.129230 0.737920
0.021074 -0.292206 0.914254
0.020367 0.300874 -0.374556
0.054210 0.086640 -0.356193
0.033989 0.303339 -0.369518
-0.016335 0.318235 -0.012242
0.244152 0.320752 -0.466883
-0.099581 -0.203878 0.877982
-0.085463 -0.174829 -0.201958
0.075781 -0.323525 0.404850
0.013558 0.002450 0.447897
-0.001708 -0.085869 -0.114858
0.256822 0.145649 -0.404651
-0.028166 -0.022014 -0.137740
-0.130366 -0.263693 -0.207702
-0.102645 -0.231824 -0.207400
-0.266469 -0.285329 -0.162888
0.149022 0.103681 -0.476838
0.090329 -0.316261 0.844182
-0.173311 -0.122824 -0.144465
0.014396 -0.197582 0.813056
-0.157320 0.056384 -0.578668
0.057845 -0.274976 0.854861
-0.144161 0.083203 -0.564640
-0.132773 0.234246 -0.097120
-0.014954 -0.143683 0.740047
-0.046595 -0.137321 0.812692
-0.185175 -0.230714 0.966504
0.039979 -0.096857 0.538185
-0.261194 -0.352101 -0.204021
0.038548 0.045213 0.510260
0.077033 0.069755 0.531772
-0.126164 -0.199105 -0.177526
-0.134836 -0.259882 0.873843
0.211675 -0.338772 0.815686
-0.018378 -0.112257 0.530144
-0.179340 -0.182512 -0.158378
-0.127939 -0.221393 0.895331
-0.002800 -0.033602 -0.161651
0.099932 0.291845 -0.113492
0.127931 0.154120 -0.206740
0.100436 -0.328944 0.742109
0.257562 0.068531 -0.468321
0.041313 0.252400 -0.141759
0.066252 -0.324567 0.415007
0.113581 -0.182902 0.466854
-0.251716 -0.314929 0.926738
-0.003508 -0.261893 0.428863
-0.068943 0.136532 0.024817
0.098416 0.090836 -0.647098
0.024089 0.149816 -0.491544
0.131935 0.082214 -0.417063
0.090433 -0.026042 -0.378860
-0.055800 0.157260 0.161654
0.139524 0.056729 -0.498255
0.090561 0.133398 -0.245683
-0.032329 0.152374 -0.404427
-0.233350 -0.036663 0.052906
0.020387 -0.108885 -0.392786
-0.042844 0.088446 -0.318258
0.060517 0.206017 -0.177952
-0.161927 -0.326169 -0.212212
0.155719 0.302914 -0.086349
0.023804 0.112105 -0.568125
-0.040055 -0.065802 0.602199
0.088690 0.098128 -0.610992
-0.199916 -0.038185 0.008495
-0.023384 -0.078302 0.661643
0.013243 0.018494 -0.072234
0.129530 -0.309032 0.842662
0.190279 0.286311 -0.102019
0.225883 0.168367 -0.217903
0.133797 0.271420 -0.111372
0.081549 0.289578 -0.107921
0.015745 0.144117 -0.247513
-0.208183 -0.335170 0.892005
-0.081170 0.278913 -0.066506
-0.041963 -0.056183 0.620777
0.232365 0.002846 -0.478682
0.234515 0.283481 -0.083036
0.034084 -0.339492 0.411083
-0.018448 0.028751 -0.330575
-0.058828 -0.292660 0.805451
0.019981 0.141788 -0.479528
0.266128 -0.025910 -0.504381
0.009379 -0.245981 -0.413758
0.155684 0.239692 -0.139865
-0.139153 -0.185227 -0.163808
-0.303010 -0.092040 0.022511
0.090967 0.202819 -0.484481
0.261460 -0.042682 -0.536497
0.023193 0.000299 -0.118353
0.073955 0.057057 -0.464883
-0.319910 -0.118666 0.020123
-0.050194 0.081069 0.310468
-0.063740 -0.213057 0.870388
-0.069733 0.149406 -0.010272
0.135580 0.101149 -0.518827
0.236029 -0.282718 0.908785
-0.039408 0.022416 -0.657178
-0.034546 -0.033364 0.587833
0.136714 0.068935 -0.698592
-0.114389 0.046663 -0.078459
-0.090441 0.091637 0.387619
0.294436 0.131573 -0.378932
0.049713 -0.104371 -0.399923
0.226009 -0.335327 0.822963
-0.141825 -0.166813 -0.161316
-0.067466 0.201216 -0.163873
0.210903 0.009975 0.486240
0.003066 0.165411 -0.223914
0.206199 -0.330406 0.835147
0.346474 0.240650 -0.082930
0.051878 0.191632 -0.189482
0.077442 0.282565 -0.448220
0.091603 0.299695 -0.089880
-0.047108 -0.175067 -0.203221
-0.053816 -0.130976 0.540021
-0.083392 -0.269685 -0.253813
0.039922 -0.339387 0.390216
-0.150225 -0.300520 0.884616
0.059982 0.204785 -0.179895
-0.050208 0.190618 -0.135881
-0.055370 0.047532 -0.252275
0.101094 -0.036467 -0.385444
0.313984 0.132923 -0.399115
0.335655 -0.061690 -0.519192
-0.342055 -0.150146 -0.009075
0.149285 0.189082 -0.177474
-0.196530 -0.271620 0.930250
0.181156 0.251211 -0.501308
0.148045 0.068720 -0.705717
-0.118810 0.031065 0.251838
0.342229 0.286011 -0.041901
0.042081 -0.116681 -0.128503
0.064218 -0.139936 -0.158949
0.044868 -0.102885 -0.397041
0.061822 -0.264347 0.869545
0.266440 0.322751 -0.467614
-0.030723 0.157445 0.572797
-0.173388 -0.102922 -0.141044
-0.070157 -0.291954 0.813616
0.108788 0.095817 -0.547800
-0.013913 0.128835 0.568211
-0.161307 -0.311255 0.889697
-0.208057 -0.148804 -0.128277
0.080424 0.001408 0.456740
0.210455 0.147111 -0.249188
0.162770 -0.324377 0.825120
0.289268 0.287759 -0.042819
0.008124 0.164397 -0.220576
-0.081764 0.104953 -0.482810
-0.283824 -0.054901 -0.581968
0.057421 0.360288 -0.356317
0.329356 0.217768 -0.137783
-0.078528 0.091086 0.299685
0.020704 0.315886 -0.040573
0.198522 0.006485 0.486403
-0.001676 0.100168 -0.520728
-0.020282 -0.133360 0.767008
0.259094 0.048256 0.498993
0.160721 0.282058 -0.096992
0.075572 0.386028 -0.374942
-0.325191 -0.108411 0.060972
-0.132076 -0.017882 -0.117219
-0.044087 0.078787 0.369067
-0.022706 -0.250368 0.463846
0.027120 -0.246568 0.451915
0.091912 0.298954 -0.091094
0.283490 0.222531 -0.144335
-0.065384 0.038075 -0.254360
0.011178 -0.208362 0.828626
0.062376 -0.002446 0.430784
0.070512 0.113129 -0.524592
0.153155 0.276445 -0.469007
-0.277557 -0.321645 0.926271
-0.021761 -0.128132 0.518155
-0.162546 -0.301829 0.896629
-0.213245 0.012993 -0.018551
-0.042278 -0.078855 0.673263
0.252506 0.002127 -0.484079
-0.167426 -0.344285 -0.223989
0.043459 -0.103293 0.530559
-0.007153 0.120743 -0.403551
0.026988 0.235383 -0.175312
-0.053884 -0.047924 -0.284746
-0.318600 -0.139606 -0.025393
-0.061228 -0.272460 0.450560
-0.170989 0.074608 -0.538121
-0.230297 -0.044726 0.021783
0.232567 0.337003 -0.031867
0.123168 0.310818 -0.073543
0.154121 0.020357 0.501347
-0.028211 0.290269 -0.345376
0.100887 -0.232716 0.918999
0.242397 -0.345138 0.793946
0.252428 -0.350245 0.768730
0.151251 0.106847 -0.512746
-0.091526 -0.086160 -0.256262
0.199979 0.168252 -0.194958
-0.094047 -0.241523 -0.357900
-0.099282 -0.241666 0.865534
-0.036429 -0.149534 0.516104
0.012855 0.194520 -0.418121
-0.014744 -0.108738 -0.371943
0.089148 -0.221101 0.935848
0.077401 0.272878 -0.453160
-0.023607 -0.193982 0.790785
0.002994 -0.188103 0.809422
-0.057426 0.202720 -0.165933
0.061282 0.221091 -0.453682
0.108486 0.113884 -0.425721
-0.054325 -0.287421 -0.391934
0.006917 -0.018719 -0.149325
0.095619 0.083289 -0.632174
-0.034368 -0.284493 0.416759
-0.125398 -0.095085 0.980643
-0.007021 -0.010803 -0.138968
0.076859 0.249721 -0.453155
-0.001812 0.015727 -0.664578
0.248100 0.304962 -0.046560
0.253867 0.329645 -0.452543
0.245077 0.297296 -0.057912
-0.204842 -0.043512 -0.021570
-0.160105 -0.114983 0.976565
0.045431 0.118624 -0.278347
-0.037268 0.081167 0.540683
0.205795 0.319750 -0.464605
0.123592 0.146345 -0.245150
-0.299610 -0.087349 0.030344
-0.020381 -0.092889 -0.354805
-0.091516 -0.248599 0.858237
-0.064016 -0.127609 0.562873
-0.291610 -0.085267 0.013121
-0.023175 -0.105286 0.680830
-0.028864 0.339497 0.017817
-0.066947 -0.012404 -0.316944
-0.074452 0.139195 0.039359
-0.069253 -0.284342 0.436636
-0.063428 -0.247022 0.492530
-0.287487 -0.069389 -0.623062
0.114705 0.042021 -0.644724
-0.085820 -0.022013 -0.287377
0.045944 -0.236687 0.466794
-0.041166 0.139333 0.560277
0.061506 -0.007022 0.399958
0.212272 0.272332 -0.493259
-0.072891 0.307310 -0.019283
0.022191 -0.184957 -0.367007
-0.280028 -0.148284 -0.082915
-0.203957 -0.085930 -0.102758
-0.044249 0.126521 -0.314566
-0.033757 0.084398 -0.555207
-0.128160 -0.258605 0.866819
-0.183658 0.027590 0.249141
-0.041405 -0.240761 0.484819
-0.171918 -0.220301 -0.170547
-0.056778 0.032894 -0.662589
0.198259 0.331579 -0.042453
0.034164 0.041680 0.469030
0.085611 0.335923 -0.013879
0.086744 0.079390 -0.449431
-0.050880 0.067840 -0.330177
-0.187286 0.011988 -0.065890
0.207876 -0.357508 0.777107
-0.039354 -0.158241 0.813413
-0.051260 0.167294 -0.302018
0.182781 0.176421 -0.184921
0.001233 0.091475 -0.377146
-0.064450 0.107674 0.068477
0.048930 -0.001742 0.439179
-0.028572 0.262196 -0.358203
0.193935 0.238719 -0.144758
-0.072823 -0.141868 0.925475
-0.063644 0.096048 -0.543762
-0.026838 -0.055226 0.629006
-0.064222 -0.041086 -0.258319
0.091988 -0.034954 -0.388013
-0.035204 -0.110968 -0.325009
0.036683 0.359692 0.012812
0.055013 0.339680 -0.018842
-0.002261 0.042101 -0.610340
0.112231 0.226522 -0.145890
0.000874 -0.218619 0.738061
0.254388 0.093338 -0.449731
0.202354 -0.332319 0.820021
-0.057949 0.128461 0.144767
0.340320 0.221976 -0.132392
-0.082395 -0.026578 -0.271620
-0.186507 -0.218209 0.954663
-0.017052 -0.152779 0.517694
-0.099193 0.060264 0.338201
0.012423 0.297099 -0.367602
-0.015955 -0.140532 -0.189184
-0.037332 -0.208958 -0.347370
-0.188510 0.050637 0.022645
-0.060720 0.127911 0.155621
-0.216447 -0.338152 0.891162
0.061465 0.096138 -0.612048
0.078192 -0.216710 0.455339
0.132412 0.115124 -0.524455
-0.128383 -0.149301 -0.277291
-0.095408 -0.133572 0.561000
-0.095495 -0.170159 0.857094
-0.147084 -0.280161 0.895543
-0.030116 0.090094 0.546924
0.098157 -0.196562 0.459766
-0.202104 -0.358681 -0.233173
-0.026946 0.034617 -0.309327
-0.118939 0.252311 -0.073710
0.194766 0.290008 -0.093402
-0.021019 -0.161475 0.514067
0.091431 -0.123179 -0.422518
-0.023955 -0.159423 -0.195173
-0.074851 0.242477 -0.099508
-0.005624 -0.179159 0.515078
-0.097815 0.096061 -0.497487
0.179698 0.071497 -0.464285
0.071784 0.131163 -0.246636
-0.099511 -0.190418 0.874726
0.104018 0.308015 -0.059947
0.095926 0.063683 -0.644528
0.032737 0.094514 -0.337478
0.090744 0.191865 -0.185723
0.038810 0.166554 -0.452491
0.070421 -0.318098 0.414814
0.276033 0.021888 0.443565
-0.067216 0.167694 0.017191
0.136793 0.056861 -0.774441
-0.049463 0.191138 -0.140830
-0.268333 -0.010293 -0.539757
0.028582 0.039477 0.461690
-0.026770 -0.214493 -0.236771
-0.054432 0.206181 -0.160521
0.250361 0.299007 -0.051413
-0.063723 -0.023707 -0.297420
0.219603 -0.361797 0.739216
0.033224 0.043207 0.463664
0.090405 0.093050 -0.591562
0.095571 0.003142 0.458822
-0.068401 0.140275 0.073031
0.189877 0.019617 0.500197
-0.269991 -0.126229 -0.060714
-0.168465 0.075343 -0.535932
0.335928 0.228219 -0.136312
-0.032915 -0.029959 -0.142333
0.109409 -0.323359 0.819725
-0.038777 0.139558 0.563977
-0.017608 0.020490 -0.620789
-0.039801 -0.164983 0.818148
-0.094459 -0.130663 0.576422
0.057904 0.037894 0.479702
0.024114 -0.077901 -0.364951
0.148635 0.196255 -0.167840
0.040420 -0.034952 -0.388332
0.354477 0.262469 -0.063820
-0.058807 0.182568 -0.119359
-0.187497 0.039905 -0.570260
-0.098700 -0.253648 -0.223978
0.040166 0.177761 -0.203076
-0.037076 0.188387 -0.286986
-0.015574 -0.220449 0.755181
0.033616 -0.340408 0.394772
-0.046602 0.060446 0.400966
-0.159290 -0.212823 -0.171657
-0.067283 -0.284559 0.429936
-0.108556 -0.133864 0.569207
-0.076931 0.037586 -0.604748
0.105660 0.313838 -0.427754
-0.256079 -0.110836 -0.052715
-0.026785 -0.220982 0.762851
0.348652 0.232119 -0.119680
0.135345 -0.030667 -0.399792
0.159907 0.289569 -0.455143
0.027152 -0.336179 0.395973
0.083738 0.170817 -0.209715
-0.073454 -0.008272 -0.296486
-0.063914 0.154901 -0.064262
-0.048771 -0.064254 -0.304858
-0.053583 0.182957 -0.247541
0.008962 0.007480 0.436733
-0.084035 -0.056836 -0.245209
-0.149569 0.059710 0.001028
0.168615 -0.354775 0.778914
-0.071505 -0.104621 -0.299552
0.187264 0.097842 -0.504879
0.241847 0.347688 -0.026874
-0.143900 -0.139701 -0.254735
-0.314236 -0.107717 0.021108
0.020294 0.028316 0.452836
-0.056245 -0.228674 0.857058
0.233636 -0.025105 -0.516013
0.204719 -0.324401 0.829917
0.090445 0.077081 -0.635066
-0.045107 0.037342 -0.604597
-0.009555 0.049770 -0.600851
0.130825 0.218875 -0.508666
0.246971 0.055817 -0.465177
-0.242652 -0.328754 -0.191977
0.073192 0.263846 -0.139735
0.011843 0.116096 -0.519249
0.060495 -0.246282 0.892944
0.189148 -0.367973 0.729610
0.078488 -0.009002 -0.101453
-0.107476 -0.255836 0.861319
0.249614 0.315990 -0.509458
0.027662 0.339335 -0.347573
-0.033636 -0.122039 0.743868
0.027941 0.083646 0.542948
0.063946 -0.288798 0.829879
0.020740 -0.215873 0.836430
0.082486 0.188893 -0.188616
0.122865 0.052819 0.532334
-0.263842 -0.032815 -0.567504
0.070556 0.089145 -0.607443
0.198616 -0.351114 0.793273
0.320455 0.237672 -0.084705
-0.117782 -0.140610 -0.272489
0.220549 0.341981 -0.031051
-0.072950 0.173225 -0.043867
0.088700 0.070122 -0.637347
0.044642 0.110306 -0.557162
-0.082625 -0.089309 -0.274052
0.194125 -0.333583 0.823055
0.074280 -0.254224 0.488586
-0.122095 -0.168255 0.924070
0.259436 0.053219 0.502699
0.176987 0.058987 -0.502044
0.003465 -0.282964 0.459829
-0.032766 0.266810 -0.085050
-0.141298 -0.349286 -0.268994
0.072082 0.267061 -0.135372
-0.031225 0.353687 0.018056
-0.003755 0.150940 -0.417697
0.033557 -0.120274 -0.406186
-0.137206 -0.142994 0.951179
0.070552 0.096318 0.548237
0.018995 0.122152 -0.536150
0.029948 -0.078768 0.855402
-0.114543 -0.117530 -0.158216
-0.037875 0.075734 -0.565295
-0.050620 -0.187093 0.807052
0.039918 0.040023 0.501850
-0.041267 -0.084163 0.688400
-0.167783 0.034940 0.323905
0.262174 0.142886 -0.400469
0.106312 -0.003278 0.447909
0.016463 0.112507 -0.549439
0.169892 0.067057 -0.472211
0.030648 -0.098898 0.847508
0.307707 0.234488 -0.095176
0.251973 0.331368 -0.448136
-0.079927 0.091561 -0.293787
0.218808 0.153608 -0.253698
0.061305 0.009338 0.464233
0.280093 0.329422 -0.456642
-0.153524 0.036692 0.322412
0.156805 0.036945 0.520110
-0.096309 -0.306143 0.813291
0.139038 0.218612 -0.157325
-0.173415 0.017000 -0.620489
0.353324 0.240550 -0.111763
-0.192015 0.033486 0.265802
-0.030590 -0.196202 0.786932
0.307789 0.259228 -0.063162
-0.157990 -0.054498 -0.115542
0.261182 0.356867 -0.418669
0.059834 -0.274482 0.855111
-0.268342 -0.059125 -0.634569
0.046412 0.162683 -0.475239
-0.072000 0.019497 -0.272847
-0.075474 0.306829 -0.022256
-0.107216 -0.155960 0.506476
0.226188 0.323959 -0.460919
-0.070446 0.099272 -0.292610
-0.024780 -0.203432 -0.357251
-0.002461 0.010432 -0.352025
0.106085 0.156938 -0.221815
0.281927 0.302658 -0.035114
-0.187650 0.047907 0.020280
-0.077231 -0.201839 -0.326939
0.157066 0.053441 -0.637446
0.030929 0.295448 -0.384732
-0.026545 0.026467 -0.073358
-0.132383 -0.008930 -0.115971
-0.010076 0.277148 -0.361111
0.115936 0.023386 0.492903
0.010552 0.300591 -0.368321
0.293231 0.356715 -0.438498
0.059493 -0.007979 -0.106557
0.043701 0.125642 -0.586625
-0.027231 -0.129816 0.755999
-0.122934 -0.217442 -0.195291
-0.019766 0.145097 -0.393285
-0.209062 0.017740 -0.021823
-0.169022 0.050737 0.002691
0.022956 0.226094 -0.409213
0.094853 0.200605 -0.489671
0.002480 -0.130596 0.512767
0.065057 0.110625 -0.570706
0.113242 0.106256 -0.544040
-0.051178 -0.172745 -0.320143
0.070984 -0.213677 0.945634
-0.181945 -0.215827 -0.169492
0.110293 0.098017 -0.340278
0.029396 0.256055 -0.126285
0.180324 0.225310 -0.151893
0.125828 0.152446 -0.220650
0.047676 0.334231 -0.024343
-0.327956 -0.113321 0.046618
0.368695 0.268975 -0.070181
0.242809 0.040998 0.506364
-0.052153 0.087640 0.290984
-0.084904 0.104379 -0.118189
0.009371 -0.250854 0.462016
-0.198050 0.085625 -0.500518
-0.040536 0.098173 -0.321213
-0.003515 -0.011051 -0.139615
-0.295188 -0.312746 0.938009
0.110158 0.040681 -0.725552
0.083951 0.074749 -0.616689
-0.050738 0.171263 -0.248674
-0.071048 0.107909 -0.475437
0.186236 0.043872 0.528681
0.061567 0.100203 -0.329578
-0.047310 -0.196755 0.797055
-0.023664 -0.059415 -0.326687
-0.034281 0.025189 -0.315870
0.017525 0.283724 -0.082661
-0.174850 0.032529 -0.041025
0.103041 0.081100 -0.642106
0.090854 0.035319 0.496583
0.041716 -0.032934 -0.394414
-0.148847 0.060891 0.013293
-0.245107 -0.302464 -0.171144
0.001105 0.078500 -0.569976
0.075496 -0.343499 0.365614
-0.125514 0.208051 -0.136772
-0.062449 -0.264811 0.465451
-0.005282 0.011157 -0.099358
-0.032331 0.191665 -0.246184
-0.057447 0.137566 0.116671
0.179865 0.210040 -0.534736
-0.090543 0.025593 -0.247481
0.096545 0.018610 -0.345207
-0.003397 -0.153546 0.820557
0.187867 0.159819 -0.200922
0.197916 0.340706 -0.423596
-0.094757 -0.234107 -0.348028
-0.047857 0.051619 0.374643
-0.048285 -0.231180 0.860107
0.256609 0.115107 -0.422075
-0.090889 -0.209180 -0.204034
-0.128374 0.029058 0.304385
0.129866 0.311437 -0.096759
0.288659 0.331653 -0.454956
-0.195265 -0.339612 -0.212567
-0.049907 0.135253 0.131437
-0.021555 -0.104865 0.695640
-0.103492 -0.291339 -0.255712
0.256862 -0.334829 0.823900
-0.012299 0.271533 -0.083654
-0.091136 0.028214 0.224966
0.069058 -0.140265 -0.440650
-0.073495 0.010695 -0.105980
0.074573 0.106125 -0.418742
-0.036683 0.183190 -0.342933
-0.016777 0.198056 -0.179219
0.179957 -0.286923 0.902932
0.124854 0.052003 -0.499201
0.101348 -0.185675 0.474510
-0.122153 -0.204307 -0.182180
-0.153549 0.077387 -0.547019
0.081281 -0.017521 -0.140617
-0.036419 0.175750 -0.250389
-0.251091 -0.268166 -0.158617
0.042189 -0.084302 0.566823
-0.048649 -0.298089 0.398140
-0.085995 -0.088971 -0.142044
0.217446 -0.292418 0.857736
0.157446 0.051033 -0.654066
0.033898 -0.243638 0.862261
-0.119733 0.227270 -0.095885
0.138356 0.064215 -0.651681
-0.068773 -0.277575 0.826375
0.235745 0.291657 -0.075739
0.172038 0.297779 -0.453286
0.027749 -0.092464 0.556924
-0.214341 0.042561 0.044279
0.053895 0.134387 -0.243985
-0.235128 -0.354994 -0.222569
-0.201811 -0.060935 -0.072793
-0.035376 -0.037945 0.608155
-0.011735 -0.131458 0.735537
0.252876 -0.002223 0.436503
0.108123 0.107018 -0.547143
-0.184909 -0.368793 -0.302583
-0.053183 0.197760 -0.120159
0.219817 0.147556 -0.237543
0.232278 -0.333656 0.837677
-0.281435 -0.283433 0.952712
0.222191 0.097620 -0.460500
-0.248972 -0.094667 -0.049279
-0.086513 0.019119 -0.098209
-0.060932 0.097633 0.234824
0.283390 0.053381 0.470270
-0.065043 0.189461 -0.103952
0.119668 0.070878 -0.439528
0.027606 -0.113926 -0.131162
0.294057 0.216117 -0.156567
0.108682 -0.331075 0.371578
-0.323505 -0.118696 0.026139
-0.171296 0.084130 -0.451291
0.170147 0.084621 -0.499299
0.096800 0.085006 -0.626722
0.016437 -0.214143 0.839193
0.368630 0.258250 -0.117279
-0.109627 -0.289629 -0.248794
-0.050153 0.105510 0.253032
-0.107585 -0.271526 -0.234559
0.250351 0.345202 -0.425604
0.186009 -0.335290 0.815574
0.029228 -0.343875 0.391834
-0.000449 0.016112 -0.343771
0.361774 0.265452 -0.063224
-0.172549 -0.192937 -0.164919
0.163381 0.096068 -0.498909
0.107477 0.075654 -0.648453
0.163102 0.214651 -0.161995
0.178719 0.146272 -0.230565
-0.026541 0.051378 0.423007
-0.014217 0.146638 -0.402913
0.126787 -0.033449 -0.390426
0.186757 0.305537 -0.461573
-0.101334 0.135186 -0.105013
-0.013751 0.266949 -0.362870
-0.038537 -0.028267 0.515913
-0.006087 -0.213284 -0.230203
-0.025265 0.039125 0.433036
-0.113432 0.060101 -0.575409
-0.143894 -0.252796 -0.194907
-0.144671 0.025394 0.290694
0.129588 0.055202 -0.491553
0.106340 0.079646 -0.650013
-0.130211 -0.146622 -0.165443
0.264165 -0.342809 0.776127
0.106842 0.227713 -0.483134
-0.111427 0.031089 0.297409
-0.071958 0.190801 -0.122157
0.084603 0.006836 0.466575
-0.007106 0.333107 0.000982
-0.016885 -0.051687 -0.329029
0.296385 0.111854 -0.418878
-0.058712 -0.011381 -0.322037
-0.067679 -0.014153 -0.316117
0.181436 0.288608 -0.460956
0.185975 0.082148 -0.452606
0.016046 0.089757 -0.380826
0.090283 0.095033 -0.639389
0.165372 0.058404 -0.485743
-0.057556 -0.026499 -0.287377
0.093795 -0.304954 0.425988
0.095482 -0.291144 0.851283
-0.024509 -0.277316 0.425476
0.050925 -0.274711 0.850776
0.134995 0.265241 -0.120098
0.130264 0.152728 -0.226968
-0.076166 -0.085771 -0.285231
-0.006791 0.106238 -0.390937
0.009459 0.165876 -0.416049
0.015267 -0.180267 -0.358987
-0.060210 -0.086191 -0.300436
-0.117586 0.054887 -0.030665
0.037215 0.166037 -0.448278
-0.177562 0.085206 -0.467020
-0.069668 0.062537 -0.315982
0.216837 -0.317260 0.845892
0.165246 -0.341251 0.813333
0.377471 0.273470 -0.073312
0.117925 0.074297 -0.526298
0.045595 0.240026 -0.456563
0.081590 -0.228017 0.925142
-0.072442 0.142646 0.096940
-0.049923 -0.297598 0.399099
0.089087 0.082221 -0.616630
0.018602 0.145290 -0.482174
-0.134358 -0.229386 0.900327
0.082628 -0.312491 0.838123
0.103044 0.186611 -0.181579
0.038765 0.156110 -0.455385
-0.198269 0.004648 -0.590662
0.026680 -0.223356 0.490983
0.003446 0.044371 -0.616576
0.020073 -0.211576 0.823947
0.029933 -0.116883 -0.138287
0.052168 -0.130660 -0.420756
0.014315 -0.270912 0.439531
0.185123 0.053989 -0.498710
-0.071137 0.172414 -0.081182
-0.155648 0.060358 0.020807
-0.149364 0.078597 -0.539263
-0.124893 -0.084172 0.988790
0.063430 0.095113 -0.606662
-0.153639 -0.164350 0.939935
-0.043958 0.191002 -0.263031
-0.115674 -0.151039 0.518476
-0.148565 -0.268739 0.902416
-0.225914 -0.011089 -0.580071
0.103966 0.300941 -0.438275
0.150550 0.005966 0.491118
0.110219 -0.256717 0.888362
0.032843 0.345544 -0.344678
-0.021919 -0.064037 0.646924
-0.058895 -0.060870 -0.285320
-0.013002 -0.065252 0.542545
0.102269 0.121544 -0.414417
-0.186299 0.041831 -0.009216
-0.109205 0.039928 -0.076658
0.021292 -0.094946 0.555012
0.116251 -0.034477 -0.384387
-0.107066 -0.132636 0.573445
0.155724 -0.015344 0.470745
-0.121046 -0.153800 -0.174192
-0.035206 -0.118578 0.549715
0.296172 0.090841 -0.448329
-0.214565 -0.039774 0.027624
-0.018121 0.040317 -0.602574
-0.201495 -0.274570 -0.172717
0.106443 0.038668 -0.671779
-0.297339 -0.322929 0.933298
-0.019735 -0.042585 -0.156766
-0.068845 0.131105 0.113988
0.203977 -0.289932 0.857140
-0.049694 0.190209 -0.203337
-0.007736 0.132017 -0.467636
0.234593 -0.336305 0.820527
0.117917 0.138295 -0.428325
0.067688 0.116193 -0.589023
-0.153167 -0.138265 0.553684
-0.084820 -0.126999 -0.305893
0.239676 -0.357041 0.734089
-0.302198 -0.030886 -0.554158
-0.076959 -0.027329 -0.270747
-0.089299 0.021349 -0.096338
0.335042 -0.060204 -0.517800
0.010468 -0.097392 0.546065
0.087299 0.084856 -0.646876
0.149707 0.051709 -0.639852
0.059025 -0.317638 0.423212
0.006060 0.096369 -0.559117
-0.220666 -0.238662 0.962538
0.014300 -0.294834 0.891442
0.092659 0.254281 -0.120419
-0.039768 0.186615 -0.231150
0.034211 0.127705 -0.450777
0.349769 0.273114 -0.052375
0.160949 0.161601 -0.507166
-0.030355 -0.083314 0.667802
-0.178277 0.033828 0.296551
-0.053667 0.026023 -0.084907
-0.143657 -0.149454 0.948210
-0.034460 0.185616 -0.230822
0.134358 0.177207 -0.491519
-0.017347 0.250789 -0.367988
0.171472 -0.290817 0.884812
-0.064886 0.151428 0.083489
-0.227667 0.024528 0.015859
-0.047751 -0.159302 0.826162
-0.028097 -0.096292 -0.321580
0.099821 0.170110 -0.516306
-0.092391 -0.176108 0.901292
0.098945 -0.329729 0.749948
-0.022675 0.169917 -0.378746
-0.076547 -0.007792 -0.293421
0.064476 -0.006758 -0.100908
-0.022988 0.211454 -0.169943
-0.215568 -0.279108 0.933315
0.070635 -0.253445 0.881362
0.081309 -0.322828 0.763727
0.099429 0.251798 -0.121792
-0.034965 0.167967 -0.287320
-0.263434 -0.071098 0.017562
-0.068924 0.291724 -0.038906
-0.048216 0.029597 0.446398
0.004527 0.125423 -0.492548
0.037581 0.109562 -0.557686
-0.246373 -0.003286 -0.547221
-0.121965 -0.068401 -0.122861
-0.131052 0.087825 -0.443828
-0.174393 -0.347291 -0.219871
0.061160 0.013975 -0.065676
0.054827 -0.311190 0.428603
0.064846 0.302953 -0.392742
-0.138449 -0.225198 0.908305
-0.109905 -0.196470 0.889266
0.292226 0.340311 -0.443726
-0.309990 -0.336779 0.915345
0.143121 0.063118 -0.481118
0.032916 0.121389 0.562913
-0.011660 0.057220 -0.347968
0.111472 0.085014 -0.529174
-0.066396 0.326895 -0.001332
-0.015563 0.043698 0.414207
-0.079405 -0.209862 -0.216781
-0.117692 -0.149821 0.523368
0.123656 -0.307546 0.845540
0.238348 0.018292 -0.479900
-0.009014 0.046842 0.432852
-0.245117 -0.057135 0.014337
0.260050 -0.041641 -0.545075
0.030866 -0.004930 -0.119243
0.345901 0.259981 -0.064481
-0.021832 0.105479 0.557850
-0.109338 0.034040 0.254012
0.163107 0.053033 0.539787
0.276933 0.050704 0.457303
-0.089654 -0.279809 -0.270627
0.014146 0.243721 -0.398788
0.044452 0.243708 -0.445013
-0.072811 0.186429 -0.145013
-0.051341 0.222506 -0.139352
-0.037660 -0.055870 0.606972
-0.099534 -0.289299 0.831058
-0.095068 -0.184407 0.868437
-0.016405 -0.172179 0.813031
0.077833 0.314728 -0.406325
0.059480 0.368261 -0.357292
0.002344 -0.057574 -0.345997
-0.183617 0.080523 -0.476553
-0.026262 -0.027294 -0.326419
0.056708 -0.228705 0.463929
-0.042348 -0.190596 -0.334683
0.177961 -0.004187 0.480330
0.157165 0.145041 -0.232733
0.089207 0.096038 -0.642222
0.019512 0.029319 0.451871
0.150235 0.276351 -0.101246
-0.159108 0.024511 0.267728
0.008638 0.148369 -0.250847
0.107496 -0.311504 0.840365
-0.085330 0.083078 0.356500
-0.064609 0.147161 -0.009227
-0.279880 -0.053937 0.071011
0.066247 0.098992 -0.335842
0.025616 0.133911 -0.447288
-0.209729 -0.219434 -0.144221
-0.277908 -0.315361 -0.181634
0.241371 0.247089 -0.126176
0.001817 0.270981 -0.372499
0.198181 0.247395 -0.137200
0.356887 0.245654 -0.087448
-0.286403 -0.047482 -0.572818
0.233049 0.221637 -0.165180
-0.028252 -0.018089 -0.325600
-0.317312 -0.105085 0.043212
-0.136372 -0.130576 -0.237862
-0.036439 0.251659 -0.342529
-0.129614 0.003266 -0.114684
-0.045131 0.026831 -0.295503
-0.122612 0.244412 -0.087541
0.001050 0.349231 0.013427
0.127805 0.152997 -0.230424
0.036949 0.180509 -0.454185
-0.154239 -0.039661 -0.093946
0.048188 0.206759 -0.176984
0.061096 0.175051 -0.209570
0.126274 0.206446 -0.164756
0.336920 0.267413 -0.056454
-0.128662 -0.284897 0.846513
-0.048148 0.089917 0.384013
-0.095540 0.085379 -0.103783
-0.206828 -0.337634 0.886686
-0.053135 0.086385 0.293809
0.062353 -0.030653 -0.402750
-0.021730 -0.149594 0.826949
-0.039923 0.049151 0.419061
-0.141848 -0.259637 0.875135
0.057209 0.116795 -0.509723
-0.038065 -0.136157 0.529629
-0.100005 -0.011611 -0.276041
0.019585 0.239990 -0.398959
0.039347 -0.191967 -0.209756
0.072229 0.260859 -0.141025
-0.068919 -0.115615 0.953584
-0.090234 -0.155693 0.503360
-0.209411 0.038930 0.023932
0.040874 0.084191 -0.612993
0.315949 0.235951 -0.089205
0.033648 0.197711 -0.459306
-0.145706 -0.116594 -0.145861
0.108819 -0.312506 0.841217
0.259498 0.229048 -0.152990
0.006016 0.258475 -0.112195
-0.050810 -0.145586 0.822109
-0.015635 0.047615 0.427565
-0.014504 0.191551 -0.223387
0.067417 -0.003039 -0.098338
0.125322 0.031175 -0.666226
-0.018444 0.107486 0.555643
-0.036244 -0.167175 0.807221
0.033772 0.265446 -0.411137
-0.123720 -0.206298 -0.183102
0.237736 -0.340228 0.808197
-0.051742 -0.267969 0.449670
-0.160609 0.086367 -0.450862
0.099294 0.068955 -0.653665
-0.050516 -0.215251 -0.234354
-0.065310 0.128830 0.070934
-0.166610 -0.035480 -0.034380
-0.035416 -0.132892 0.773941
0.004349 0.021955 -0.615176
0.364334 0.297967 -0.042880
0.365378 0.251226 -0.106580
-0.053628 0.203962 -0.164698
0.011546 0.136948 -0.507915
-0.257187 -0.068772 0.000152
-0.204087 0.068076 0.070664
0.171464 0.330059 -0.434773
0.011359 0.267655 -0.104873
-0.119555 0.006039 -0.120844
0.321883 -0.022472 -0.494242
0.147925 0.010175 0.496374
-0.035688 0.242373 -0.129093
0.122571 0.183389 -0.184581
-0.073283 0.115047 -0.111309
0.223685 0.338503 -0.430904
-0.226724 -0.331001 0.905280
0.182990 0.318013 -0.068258
-0.040476 -0.210626 0.783306
-0.003916 0.128673 -0.446371
-0.102267 -0.155591 0.930995
0.007619 0.233256 -0.397417
-0.053190 -0.056609 -0.290525
-0.280659 -0.067811 0.057890
0.016165 -0.200357 0.821205
-0.118822 -0.000991 -0.657270
-0.093226 -0.196910 -0.316611
-0.036784 0.170574 -0.310389
-0.045194 0.004143 0.506923
-0.092151 -0.262608 -0.374486
0.319324 0.121552 -0.416055
0.229996 0.052384 -0.476210
0.331286 -0.015263 -0.491805
0.144827 -0.288518 0.874428
-0.074299 0.131183 -0.101213
-0.043629 0.160899 -0.317837
0.022322 0.009116 -0.088721
-0.018190 0.345464 0.020320
0.177150 0.159877 -0.511262
0.108165 0.106001 -0.543278
-0.139005 0.088270 -0.581797
-0.101303 -0.179565 0.894888
-0.075496 0.151432 -0.017897
-0.229433 0.031680 0.029838
-0.042144 0.170215 -0.337710
-0.110872 -0.189308 0.901130
0.093053 -0.109809 -0.407651
-0.073827 0.195595 -0.134952
0.171075 0.041884 0.528660
0.053614 -0.006189 0.382531
0.099104 -0.123615 -0.434437
0.179187 -0.340508 0.814066
0.121228 -0.310491 0.835912
0.103360 -0.176758 0.482781
-0.000857 0.147709 -0.419025
-0.078863 0.008705 -0.107102
-0.109003 0.031707 0.222482
0.057937 0.011843 0.461334
0.313528 0.015231 -0.466375
0.064664 0.085402 -0.356872
0.028395 0.151990 -0.228568
-0.018446 0.166187 -0.379226
-0.065541 0.065799 -0.321076
0.230034 -0.007531 0.451462
-0.036855 0.139797 0.566521
0.238751 0.130999 -0.413449
0.025898 0.141728 -0.467476
0.000764 -0.303056 0.444134
0.114947 -0.326858 0.823174
0.114239 -0.014850 0.420834
-0.138166 -0.009033 -0.095349
0.198934 -0.362365 0.753724
0.056133 -0.305487 0.433588
0.010563 -0.004969 -0.359822
0.191039 0.280200 -0.473452
-0.285136 -0.138416 -0.063871
0.047900 0.324204 -0.360469
-0.171495 -0.125561 -0.145556
0.083975 0.048404 -0.477014
0.003219 0.271489 -0.374969
-0.040552 -0.016898 0.531901
0.003112 -0.308040 0.445998
0.016625 0.268420 -0.108407
-0.025693 -0.138369 0.774077
0.259334 0.011586 0.462638
-0.057932 0.196982 -0.113663
0.236915 0.014816 -0.482343
-0.168351 -0.136421 0.533630
-0.210199 -0.103766 -0.121665
0.035978 0.192365 -0.186596
0.156216 0.146485 -0.222945
-0.140702 0.075748 -0.568158
-0.099104 -0.102605 -0.154200
0.050583 -0.263896 0.480695
0.081901 -0.256204 0.486929
-0.112880 0.036635 -0.115646
-0.003373 0.260682 -0.105587
-0.284639 -0.081808 0.019029
-0.315348 -0.140299 -0.036130
-0.087778 0.208786 -0.134588
-0.092407 -0.155947 0.503834
0.183594 0.316277 -0.068631
0.311163 0.245840 -0.074443
-0.206753 -0.375732 -0.258344
-0.105383 0.056991 0.345338
0.189634 -0.290271 0.876094
-0.051956 0.043824 -0.258615
0.305062 0.236992 -0.097891
-0.037747 -0.186359 -0.336577
-0.077972 0.036634 -0.613761
-0.017488 -0.086585 -0.122491
0.141895 0.028835 -0.647613
-0.086044 -0.203085 -0.327654
-0.227214 -0.330761 0.906185
-0.155942 0.040857 0.334921
0.045014 -0.215854 0.483625
0.019031 0.028271 0.512134
0.245727 0.003608 -0.481690
-0.059350 -0.270852 0.826755
-0.139303 0.042833 -0.060428
0.259946 0.042100 0.485556
0.286572 0.125392 -0.387393
0.297429 0.109135 -0.421966
-0.079638 0.150080 -0.096310
0.195359 -0.361885 0.756673
0.045091 0.121848 -0.525638
-0.079169 0.042366 0.282831
0.034877 0.235553 -0.158910
0.279744 -0.001608 -0.485107
-0.081676 0.115551 -0.111656
-0.015159 0.238200 -0.140060
-0.265029 -0.047421 -0.585097
0.054329 -0.131014 -0.150376
-0.021145 -0.113461 0.722171
0.014169 -0.258344 -0.430583
0.087051 -0.078961 0.545150
-0.026972 -0.106785 0.532608
0.146185 0.045759 -0.744859
0.100789 -0.200007 0.452457
-0.159285 0.035314 -0.049632
-0.061936 -0.258205 0.836952
-0.079857 0.031768 -0.635594
-0.053677 0.204602 -0.143379
0.185685 0.205770 -0.526330
-0.265071 -0.030092 -0.563692
-0.005327 0.081421 -0.357535
0.124174 0.132355 -0.434729
0.199759 -0.337045 0.819075
-0.122498 -0.141953 0.543249
-0.051674 0.007478 -0.109931
0.041892 -0.001467 -0.114099
-0.035196 0.096537 0.403799
0.116574 0.179352 -0.521496
-0.025867 0.157854 -0.356233
0.196944 0.242196 -0.142424
-0.184741 -0.168658 -0.141182
0.256377 0.243072 -0.119543
0.118646 0.036354 -0.806157
-0.226604 -0.006382 -0.575341
-0.059220 -0.076124 -0.123069
0.104793 0.106629 -0.618662
-0.174357 -0.293409 -0.190552
-0.280447 -0.067422 -0.617402
-0.260848 -0.076092 -0.028838
-0.058825 0.095855 -0.505269
0.131030 0.193753 -0.514644
-0.251890 -0.276651 -0.155530
-0.034494 0.103324 -0.455593
0.247801 0.286906 -0.071655
0.157676 0.115967 -0.493584
-0.050091 -0.246973 0.482570
-0.010258 0.052753 -0.350463
-0.089435 0.096345 -0.554456
-0.154028 -0.091246 -0.136295
-0.196197 0.018549 -0.581589
0.035087 -0.261525 0.853481
-0.006373 0.234248 -0.146319
-0.016656 -0.100569 -0.363397
-0.284925 -0.302783 0.938108
-0.211992 -0.049950 -0.028821
0.029830 0.002967 0.393211
0.014686 0.076702 0.536448
-0.184370 0.036767 0.307345
0.129299 -0.329995 0.803182
-0.156498 0.082205 -0.463969
-0.050939 0.078128 0.301270
0.056145 0.360039 -0.355355
-0.061455 0.160921 -0.023518
-0.219256 -0.051716 -0.024520
-0.108308 0.072136 -0.293418
-0.131715 0.039938 0.320544
-0.070614 -0.137303 -0.187446
-0.062412 0.135163 0.448183
-0.151342 -0.059463 -0.117463
-0.157370 -0.233995 0.925011
-0.021102 -0.121950 0.725992
0.071269 0.197585 -0.482854
-0.077106 -0.130114 -0.181103
