-0.257521 -0.394536 0.478764
-0.050823 -0.337897 -0.619189
0.204890 -0.146962 -0.228823
0.874369 0.003220 0.741739
0.170161 -0.626226 -0.013366
-0.406439 -0.015136 0.173002
0.169938 -0.221520 -0.212664
0.377233 0.323059 0.393567
0.584744 0.345267 -0.593430
0.103561 -0.045417 0.389988
-0.063173 0.042130 -0.853062
-0.784221 -0.161318 0.058842
0.290896 -0.001349 0.537597
-0.616703 -0.232511 0.163190
-0.003847 -0.119576 0.303642
-0.202156 0.002885 0.160081
-0.060966 0.266809 0.210526
-0.409974 -0.393510 -0.745075
-0.773287 -0.198691 0.101553
0.326025 -0.064462 0.534294
-0.283159 -0.022178 0.162725
0.473503 -0.055949 0.611523
-0.034668 -0.213119 -0.608240
-0.410869 0.130527 0.083559
-0.068541 0.154015 -0.105919
-0.035091 0.141903 0.252267
0.537215 -0.058243 0.692764
-0.035756 -0.132614 -0.653784
0.125144 -0.346168 -0.205228
-0.136992 -0.026121 -0.364015
0.056059 -0.312379 -0.215696
0.182260 0.042619 0.192100
0.055700 0.629348 0.063664
-0.031932 -0.004987 -0.384481
0.749672 -0.076685 0.830793
0.552119 -0.012615 0.653766
0.198649 0.378434 0.108288
-0.159335 0.000844 -0.260600
-0.465935 0.128631 -0.232000
0.740226 0.139198 0.645623
-0.224545 -0.211902 -0.700578
-0.066134 -0.015144 -0.725033
-0.261637 -0.409406 -0.680310
-0.072025 0.466134 0.198710
0.264155 -0.208228 -0.189034
-0.325337 0.247575 -0.697229
0.120307 -0.479383 -0.130015
-0.882202 -0.180236 0.071024
0.730443 0.031881 0.763200
-0.165217 0.035439 -0.425787
0.012715 -0.074347 0.640732
-0.205340 -0.041158 0.177024
-0.125748 0.013069 -0.420334
-0.047304 -0.106498 -0.278576
-0.104804 -0.043090 -0.706343
-0.322347 -0.149765 -0.761132
0.282139 0.119178 0.525013
0.269300 -0.279947 -0.152026
0.075193 0.547548 0.131479
0.583493 -0.081014 0.751006
0.045957 -0.051927 0.726714
-0.899264 -0.360641 0.192924
0.121765 -0.102795 0.793328
0.226309 0.106150 -0.540426
-0.019571 -0.000507 -0.509259
0.164644 -0.132136 -0.247493
-0.155243 0.242128 -0.370510
-0.220557 0.037670 -0.348039
0.119306 0.472403 0.204715
0.106254 -0.076024 0.585455
0.174911 -0.479393 -0.100782
0.140503 -0.067338 0.464534
-0.167201 -0.157137 -0.684341
-0.463513 0.124615 -0.225705
-0.054297 0.542865 0.139343
-0.119183 0.342123 -0.743392
0.011016 -0.032839 -0.417706
-0.290988 -0.192431 -0.733109
-0.323412 0.167576 -0.346895
-0.142549 0.114708 -0.370963
0.668409 0.102100 0.638466
0.250550 0.292536 0.191890
-0.012047 0.151780 -0.514519
-0.306235 -0.265576 0.299976
0.265126 0.199157 -0.565550
-0.116767 -0.231183 -0.686922
-0.024927 -0.101291 -0.283308
-0.361456 0.409882 -0.732587
-0.095513 -0.190848 -0.668756
-0.116090 0.162292 0.091452
-0.460463 0.203501 -0.298853
0.236220 0.067248 -0.483859
0.292730 -0.322459 -0.119960
0.294944 0.392874 0.134465
0.760305 0.124957 0.672223
0.409941 0.280515 -0.573412
-0.399488 -0.478086 -0.727910
-0.087966 0.280160 -0.701336
0.771789 0.123732 0.679061
0.143048 -0.046271 0.510558
0.305393 -0.092090 0.596806
0.323454 0.222574 -0.530197
0.339758 -0.242011 -0.142787
-0.021589 0.626260 0.055453
0.262455 0.292724 0.453566
-0.064994 -0.372261 -0.552631
0.127498 -0.665177 -0.020618
0.133526 -0.502745 -0.115499
0.187283 -0.164563 -0.225589
-0.194024 -0.030122 -0.228887
-0.906880 -0.348227 0.180154
0.873486 0.144335 0.656333
0.204537 -0.148343 0.773117
0.179825 -0.054319 -0.266963
0.124185 -0.042266 0.648246
0.847553 0.080847 0.719049
0.599512 0.022970 0.659919
0.063893 -0.020708 -0.388701
0.019709 -0.040388 -0.365842
0.453523 0.209400 0.506808
-0.089917 -0.009454 -0.425152
-0.084908 0.009564 -0.749195
0.361267 -0.033243 0.547888
0.673134 -0.035522 0.780107
-0.250039 0.285877 -0.710939
0.205198 -0.674292 0.031439
0.341937 0.058154 -0.374945
0.535392 -0.036150 0.672292
-0.341753 -0.408720 0.432175
0.027324 -0.141782 -0.276461
0.053656 -0.093441 0.642487
0.059413 -0.679456 -0.086425
-0.099074 0.065059 0.162919
0.282675 -0.228059 -0.177203
-0.223702 0.053888 -0.362883
-0.164285 -0.080016 -0.702259
0.826650 0.019819 0.775436
0.266506 -0.368562 -0.112835
0.379269 0.250618 0.497682
0.188701 -0.026460 -0.277436
0.022163 0.136736 -0.908152
0.688083 -0.043160 0.790485
0.174053 -0.072271 0.686118
-0.226940 -0.370888 0.486660
0.505877 0.014622 0.614806
-0.093903 -0.044812 -0.702541
0.148052 -0.108968 -0.257537
0.099312 -0.057802 0.380650
0.008609 -0.068998 0.265135
0.340536 0.062307 0.535961
-0.033669 -0.216577 -0.218910
0.064760 -0.678339 -0.083175
-0.121184 0.200997 -0.420732
0.036247 -0.173074 -0.252417
-0.609388 -0.151251 0.056689
-0.152654 0.117633 -0.625695
0.263932 0.313625 -0.632499
0.298648 0.340304 -0.629559
0.126243 0.259692 0.201983
-0.773121 -0.202756 0.108969
0.047459 0.068563 -0.902502
0.242687 0.116986 0.510629
0.140330 -0.442234 -0.146152
0.036624 -0.099198 0.293701
0.246806 0.019898 -0.441057
0.673848 -0.103182 0.809844
0.246869 -0.167650 0.787372
0.782563 -0.013815 0.803762
0.787278 0.082373 0.719775
-0.003509 0.013647 -0.843385
-0.165877 0.309507 -0.393770
0.255242 0.040938 -0.451759
-0.032513 -0.009369 -0.851355
-0.258636 -0.017434 0.154150
0.335761 0.342718 0.199144
0.186149 -0.136626 -0.237867
0.760843 0.038082 0.763852
0.001412 0.274359 0.237420
0.840337 0.041662 0.746215
0.327098 0.055062 0.228425
-0.048867 0.277986 0.218707
-0.060122 0.109475 -0.063683
-0.038778 0.007381 -0.641491
-0.093638 -0.232142 -0.686888
0.152661 -0.187950 0.852869
0.861210 -0.014952 0.808558
-0.783087 -0.133219 -0.006918
0.131618 -0.623488 -0.047507
-0.042465 0.194491 0.217839
-0.635768 -0.247714 0.176024
0.008488 -0.029826 0.044809
-0.804232 -0.136068 -0.006156
0.149483 0.512011 0.167782
-0.146043 0.027573 0.172324
0.259645 -0.162776 0.775118
0.329588 0.279143 0.471848
0.059979 0.400444 0.276269
-0.139714 -0.319765 0.500549
0.872383 0.006377 0.747676
0.032193 -0.089558 -0.316999
-0.166536 0.104360 0.140678
-0.018548 -0.045059 -0.444646
0.017686 -0.021846 -0.153794
0.493962 0.251408 -0.548661
0.022276 -0.181678 -0.578352
-0.049857 -0.145324 -0.252786
0.041521 0.142981 -0.886395
-0.383772 -0.414862 -0.719562
-0.242741 0.032946 -0.332330
-0.810012 -0.187639 0.083587
-0.297652 -0.409486 -0.678465
0.189126 -0.065213 0.479769
-0.115198 -0.349412 0.516342
0.270536 0.052749 -0.444409
-0.269866 0.340156 -0.403656
-0.337085 -0.260379 0.274051
0.065674 -0.137630 0.842422
0.248567 0.414565 0.101147
0.037891 0.026890 0.030549
-0.180936 -0.300833 -0.690722
-0.611019 -0.148022 0.060959
-0.120357 0.101670 -0.048766
-0.949801 -0.252404 0.096990
-0.172689 -0.038185 -0.222513
0.005553 0.158605 0.240772
0.097049 0.546743 0.136248
-0.336425 -0.457681 -0.688024
0.327999 0.357516 0.181128
0.454213 0.321434 -0.582558
0.339508 -0.154416 0.769516
-0.422430 0.128358 -0.254701
-0.086451 0.054458 0.170504
0.109664 0.034941 -0.464735
-0.014436 -0.178641 -0.245611
-0.102330 -0.153999 0.271400
0.121291 0.282034 0.189583
0.101714 0.129618 0.119042
0.313542 0.140562 -0.536250
-0.045488 0.032131 -0.716360
0.019118 0.283978 0.008618
-0.416530 0.103984 0.113424
-0.366123 0.016692 0.164928
-0.188090 -0.001505 0.167386
0.224190 0.213827 -0.594436
-0.618514 -0.157669 0.067925
-0.136494 -0.342208 -0.152852
-0.485902 0.036037 0.142889
0.734946 0.097678 0.690056
0.097948 0.009503 -0.431336
0.282630 0.274575 0.477040
0.027179 0.165096 -0.548797
-0.295752 0.187096 -0.661088
0.259930 0.240976 -0.588528
0.244074 0.033244 0.516160
-0.887064 -0.165748 -0.047629
0.490555 0.053810 0.573749
0.826973 0.028283 0.767421
-0.165892 0.321936 -0.399968
-0.293377 -0.318190 -0.721446
-0.030031 -0.042071 0.636152
-0.137248 -0.202904 -0.692570
0.796326 -0.078765 0.835937
-0.001821 -0.005164 -0.567644
-0.378982 -0.016850 0.176604
-0.539888 0.009101 0.124482
0.012636 0.020727 -0.107793
-0.907003 -0.166500 -0.044102
0.087418 0.106928 -0.917652
-0.015413 -0.070846 0.235931
0.089420 -0.548277 -0.114644
0.017005 -0.223609 -0.581809
-0.089635 -0.174612 -0.230755
-0.090389 -0.316819 -0.630769
0.369670 -0.080499 0.566398
0.200462 0.271549 0.187560
0.471184 -0.048443 0.624909
0.519799 -0.008937 0.633881
0.333925 -0.075789 0.573127
0.078947 0.156335 -0.526328
0.252590 0.241454 0.485927
-0.345543 0.095038 0.118753
0.221647 -0.572388 -0.004091
-0.420376 -0.177539 0.210567
-0.205046 -0.139399 0.199903
0.020450 -0.021787 -0.233930
0.436763 0.252605 0.487774
0.053744 0.500572 0.165666
0.128206 -0.057585 0.426085
-0.129210 -0.292980 -0.692238
0.039339 -0.112265 0.825233
0.006388 -0.287022 -0.232704
-0.994276 -0.260947 0.063986
0.130112 -0.433624 -0.172042
-0.317269 0.002439 0.162773
-0.189846 -0.123868 -0.711825
0.124428 0.254206 0.220753
0.150609 0.104378 0.147877
-0.022674 -0.060594 -0.028928
-0.377276 -0.395660 0.389989
0.253303 0.047217 0.524781
-0.355310 -0.272509 0.273369
0.274940 -0.088314 0.617485
0.003662 -0.025755 0.145046
-0.169018 -0.158602 0.233166
-0.379534 -0.244595 0.218774
0.431916 -0.080899 0.633652
-0.409604 -0.347436 0.348469
0.114066 0.276757 0.224939
-0.263787 -0.066488 0.178918
-0.439992 -0.413769 -0.737881
-0.349812 0.149498 -0.332666
-0.144925 0.104061 -0.606928
0.063691 -0.058818 0.741964
0.253911 0.416414 0.108922
-0.013572 -0.000993 -0.397876
-0.005078 -0.003566 -0.136755
0.106978 0.036436 -0.470200
-0.195466 0.113761 0.125565
0.118223 0.274291 0.232097
0.703626 0.060595 0.704646
-0.034790 0.211958 0.217699
-0.052078 0.195180 -0.379829
0.404202 0.239304 0.499583
-0.781667 -0.119974 -0.054068
-0.484592 0.148605 -0.240211
0.558928 -0.066243 0.726694
-0.415291 0.463180 -0.761264
0.258381 0.152472 0.166680
-0.085771 0.163556 0.255759
0.187357 -0.069643 0.517715
0.236135 0.272578 0.199737
-0.288240 0.421003 -0.737638
-0.262704 0.349229 -0.411228
0.254596 0.428754 0.097178
0.017526 0.526209 0.149786
0.004151 -0.060953 0.295825
-0.257607 -0.323736 0.398682
-0.079156 0.583353 0.089006
-0.319420 -0.370329 0.401909
0.204934 0.102746 0.163400
-0.019279 0.205810 -0.394978
-0.901114 -0.277145 0.157146
-0.272410 0.068539 0.111656
-0.190854 -0.340778 0.489905
-0.333479 -0.304026 0.324704
-0.258508 -0.052266 -0.206521
0.518444 0.195260 0.495138
-0.857893 -0.230698 0.135166
-0.008161 -0.021785 -0.607765
0.014170 -0.072576 0.635806
0.177742 -0.319168 -0.181376
0.349031 -0.137641 0.741800
0.005248 -0.075565 -0.330952
-0.434119 0.162244 -0.281230
0.307132 -0.242782 -0.153320
-0.081184 -0.003093 -0.744639
0.176313 -0.049249 0.456966
0.413685 0.329136 -0.609603
-0.158104 -0.364324 0.515582
-0.029409 -0.142267 0.309596
0.162668 -0.657682 -0.006266
0.247256 -0.114139 0.674301
-0.872008 -0.262944 0.167392
0.099890 -0.244598 -0.233719
-0.026961 -0.009853 -0.409045
0.233188 0.291636 0.183637
0.740800 0.177935 0.599770
-0.668544 -0.342633 0.273577
0.119763 -0.163651 0.853350
-0.246898 -0.247293 0.324557
0.564832 0.312658 -0.581158
-0.475502 0.100611 0.097971
0.669822 -0.014513 0.755611
0.019059 0.632902 0.039027
-0.442301 -0.196299 0.219113
-0.101947 -0.072473 -0.682118
-0.163025 -0.020286 0.184015
-0.068090 0.048152 0.157743
-0.026453 -0.342603 -0.172770
0.409114 0.090042 -0.449340
0.213195 -0.173078 -0.223310
0.529222 0.091480 0.553212
0.114522 0.017665 -0.446890
0.183696 -0.268536 -0.192088
-0.150944 -0.341192 0.506352
-0.082303 -0.094380 -0.320454
-0.151921 -0.171179 -0.683770
-0.899865 -0.212598 0.099012
-0.299855 -0.317077 -0.725710
0.363290 0.291857 -0.590491
0.719608 -0.055520 0.802700
0.117841 -0.078408 0.755837
-0.055169 0.092950 -0.034159
-0.264095 -0.331512 -0.694649
-0.353839 0.344167 -0.704177
-0.707174 -0.166913 0.073207
0.160021 -0.267020 -0.198037
0.043565 -0.030210 0.081995
-0.023316 0.281743 -0.040703
-0.371333 -0.260214 0.219816
0.275688 0.385814 0.132202
-0.078633 0.136559 0.045275
0.042466 -0.176050 -0.571392
0.873446 0.144339 0.641738
-0.135595 0.203845 -0.069806
0.268972 -0.215743 -0.202232
0.644050 0.000344 0.728628
-0.118962 -0.225993 0.372098
0.091749 0.029540 0.084112
0.240240 -0.330189 -0.135783
-0.901270 -0.279058 0.158434
-0.729313 -0.228012 0.138157
0.083475 0.386675 0.277467
0.342102 0.313806 0.391466
0.249445 0.379360 0.129773
0.201380 -0.068914 0.644602
-0.019121 -0.216676 -0.598043
-0.035630 0.001778 -0.195786
-0.878906 -0.365817 0.233556
-0.045105 0.584202 0.105348
-0.017783 -0.024290 -0.708201
-0.014960 -0.026740 0.347426
-0.283017 0.238183 -0.710647
0.538837 -0.099965 0.742539
0.205217 -0.080617 0.663088
-0.178365 0.012476 -0.284348
0.078478 -0.389909 -0.159993
-0.255322 0.280701 -0.699321
0.322833 0.433217 0.124099
0.325100 0.049992 -0.366294
-0.348653 0.079973 0.128403
0.021440 0.183954 -0.616945
0.337204 -0.046529 0.559348
-0.050111 0.037924 -0.749115
0.011869 -0.091298 0.664902
-0.146750 -0.286358 0.463643
-0.002881 -0.133241 -0.265519
-0.051624 -0.131050 0.287810
0.015326 -0.028603 -0.350300
0.471332 0.276004 0.444070
-0.038986 -0.025249 -0.506424
0.154725 -0.361432 -0.162634
0.040386 -0.109171 0.681999
-0.014131 0.008385 -0.448381
-0.229718 0.201902 -0.355256
-0.189634 -0.372598 0.504698
-0.055286 -0.195228 0.330503
0.549571 0.110498 0.538017
0.095645 0.042997 0.168872
-0.294886 0.398492 -0.721312
-0.104218 -0.434890 -0.573979
0.005639 -0.128960 0.311458
-0.119052 -0.047451 -0.705911
-0.180244 -0.260864 -0.685543
0.092439 0.167867 0.163913
-0.047753 0.041831 -0.796405
-0.025468 -0.022508 -0.153023
0.509158 0.261041 -0.555320
0.716089 0.172591 0.579346
0.004251 0.628158 0.068999
-0.106649 -0.108526 -0.318176
0.470700 0.203952 -0.517932
-0.301349 -0.182910 -0.744091
-0.186381 0.060546 -0.523395
-0.924778 -0.193182 0.060821
0.029616 0.019759 0.029226
0.720900 -0.064780 0.807656
0.150662 0.028143 0.195111
0.242666 0.134909 0.506896
-0.850291 -0.278810 0.188645
-0.003545 0.222551 0.023780
0.886218 0.027364 0.709164
0.087644 -0.116264 -0.304799
-0.734505 -0.287288 0.211484
0.825962 0.003548 0.791503
-0.101750 -0.001735 -0.431185
0.047177 0.604935 0.087220
0.622794 -0.118113 0.794306
-0.031488 -0.170197 -0.620737
0.061858 -0.094144 0.644176
0.663111 -0.041798 0.773557
-0.004681 0.301611 0.277567
-0.422938 -0.318390 0.311281
-0.102332 -0.139272 0.261929
-0.963715 -0.208184 -0.002804
0.630666 0.070963 0.638210
0.050200 -0.404531 -0.131540
0.234166 -0.159317 0.774779
0.052548 0.180520 0.094485
-0.195549 -0.162642 0.226190
-0.390921 -0.263593 0.232815
0.028694 0.207193 0.068536
0.650854 -0.048961 0.773683
0.155362 -0.042605 -0.271879
-0.564007 0.000278 0.097933
0.336355 0.283587 -0.571733
0.691396 -0.089968 0.813863
-0.142452 0.243632 -0.376174
-0.435388 0.398616 -0.745609
0.639050 -0.001308 0.716990
0.242250 0.085143 0.181870
0.254328 0.207950 -0.574229
0.324516 0.444317 0.090521
0.234188 -0.347286 -0.129689
0.198051 -0.192342 0.839482
-0.176799 0.179937 0.251654
-0.875390 -0.259641 0.163053
-0.242715 -0.112332 0.201464
-0.104721 -0.049449 0.202469
-0.005667 0.257726 -0.004166
0.081651 -0.592185 -0.101504
0.211881 0.249454 -0.618281
-0.130417 -0.369777 -0.609931
0.828999 -0.022606 0.805485
-0.023946 0.002007 -0.236990
0.132709 0.217877 0.217965
0.064509 -0.677935 -0.085591
-0.273451 -0.215758 0.265187
-0.216882 0.005703 -0.286330
-0.057569 -0.136015 -0.697627
-0.040046 -0.113307 0.281323
-0.368942 0.192297 -0.637362
-0.079035 -0.067797 -0.675293
-0.113530 0.186005 -0.024450
0.082913 0.229436 0.224233
0.147770 -0.070857 -0.360102
-0.096926 0.266278 -0.079160
0.088371 -0.046883 0.394775
0.106507 -0.562028 -0.099367
-0.087378 0.118794 -0.709810
-0.017769 -0.058561 0.125255
0.024502 -0.135009 -0.590926
-0.108522 0.525998 0.147041
0.153856 -0.367467 -0.152611
-0.334801 -0.394987 -0.704081
0.115083 -0.155878 0.846074
0.466625 0.213900 0.496266
-0.159200 -0.376668 -0.645113
0.766157 0.147686 0.650882
-0.590734 -0.283867 0.226527
-0.008431 -0.053233 -0.364559
0.662183 -0.096714 0.796746
-0.027570 0.180508 -0.645228
-0.260696 -0.414847 -0.670171
-0.345511 0.221304 -0.673634
-0.048960 0.461347 0.208247
0.839750 0.113066 0.695034
0.010298 0.005900 -0.283267
0.536174 0.139945 0.520625
0.340659 0.443297 0.092628
-0.050010 0.016478 -0.491379
0.022112 -0.018395 -0.448973
-0.039411 0.584185 0.105756
0.199902 0.018944 0.220769
0.047399 -0.074393 -0.314455
-0.346410 0.343158 -0.703015
0.642069 -0.096790 0.791588
0.742970 -0.087713 0.833694
0.120230 -0.477462 -0.131493
0.274766 0.268509 0.480174
-0.012377 0.029561 -0.815290
-0.229577 0.247711 -0.707963
0.076952 -0.138289 -0.285175
-0.033747 -0.035075 -0.560268
-0.233020 0.200329 -0.354897
0.077591 0.019522 -0.583701
0.069586 0.629597 0.057921
0.550151 -0.028811 0.675710
0.570637 0.116040 0.532462
0.000519 -0.030668 0.114682
-0.088170 0.147228 0.028560
0.550044 -0.096672 0.746043
-0.408109 0.442459 -0.751013
0.597789 0.329766 -0.595129
0.200529 -0.003675 0.225063
-0.148928 -0.349553 -0.645336
-0.142415 0.169621 0.260250
-0.729865 -0.143024 0.025106
-0.107080 0.544526 0.129343
0.796880 -0.004487 0.797224
-0.004547 -0.376267 -0.136838
0.486912 0.055712 0.565794
0.629143 -0.040771 0.749871
-0.253750 0.150561 -0.364094
-0.077952 -0.083821 0.133118
-0.683837 -0.180111 0.097166
0.837177 0.190550 0.625205
-0.023388 0.088416 -0.030426
0.295310 0.174419 -0.533792
0.044876 -0.171744 -0.254096
0.057232 0.456394 0.214743
0.107134 -0.596489 -0.080984
0.102642 -0.071330 -0.342291
0.014444 -0.379461 -0.141922
-0.610667 -0.162197 0.072198
0.251423 0.388261 0.125505
-0.746463 -0.174393 0.087551
0.455655 0.057415 0.555525
-0.334672 0.151122 -0.636150
-0.023629 0.008835 -0.516808
0.116526 0.504569 0.174330
0.244757 -0.250131 -0.177938
-0.323486 -0.163234 0.218430
-0.603682 -0.270370 0.209499
-0.355018 -0.171213 0.222162
0.116772 0.303158 0.162418
0.093282 -0.705228 -0.038409
0.927027 0.065147 0.664591
0.655155 0.112620 0.597543
0.872021 0.026549 0.735576
0.008804 0.636487 0.049585
0.067437 -0.392636 -0.146850
-0.019935 0.445564 0.226888
0.641083 0.023696 0.693600
-0.020377 -0.024113 0.027709
-0.044926 -0.067661 0.098182
0.577091 -0.017678 0.677294
-0.116652 -0.346258 -0.145788
-0.446495 0.101420 0.108327
0.134310 -0.509461 -0.111887
-0.398587 0.356377 -0.727433
-0.246302 0.370986 -0.431559
-0.119495 -0.271412 0.449128
-0.255754 0.092226 -0.369827
0.123329 0.526512 0.156609
0.659195 0.053491 0.674397
0.333249 -0.124673 0.672717
0.645228 -0.040897 0.767302
0.514287 0.361134 -0.607099
0.095825 0.020658 0.101765
-0.160652 0.346156 -0.419782
0.363779 -0.091072 0.623745
-0.127928 0.188744 0.242631
0.911027 0.033695 0.728942
-0.109110 0.020370 -0.775309
-0.187178 0.288283 0.211238
-0.345115 -0.278603 0.284749
0.225361 0.104357 -0.541890
0.366283 -0.093760 0.548964
-0.157589 -0.266589 0.431816
0.316143 -0.113635 0.655080
-0.094951 -0.322280 -0.620194
-0.418654 0.458284 -0.763715
-0.030542 0.149891 -0.607743
0.664369 0.131223 0.585024
0.003237 -0.016743 -0.516109
0.125228 -0.070246 0.732691
0.025369 -0.141414 -0.586885
-0.638803 -0.219373 0.147534
-0.676526 -0.177914 0.096913
-0.322752 0.168791 -0.640937
0.144100 -0.051248 0.524496
0.189856 -0.062513 0.511451
-0.117406 0.113238 -0.696339
-0.035030 0.164509 -0.355600
0.443512 0.307234 -0.578319
-0.210004 0.064465 -0.398233
0.347776 -0.133002 0.692136
0.096490 0.511863 0.164292
-0.129501 0.151930 -0.029474
0.263295 0.200043 0.499497
0.396010 0.033012 -0.362875
-0.142938 0.200791 -0.422887
-0.034396 0.142392 -0.506605
0.146199 -0.000277 0.204001
0.386859 0.285300 -0.582925
0.583960 0.351993 -0.604884
-0.117197 -0.355162 -0.601610
0.723623 0.104010 0.687684
0.035047 -0.218676 -0.573323
-0.170545 0.303132 -0.390428
-0.467524 -0.208665 0.223870
-0.363453 -0.001651 0.170767
0.263075 0.296574 0.451124
0.188201 0.264201 0.184330
-0.151702 -0.327894 -0.662719
0.060041 -0.123192 0.322101
0.693616 0.165827 0.563334
0.173116 -0.534553 -0.065051
-0.126453 -0.115611 0.226679
0.262108 0.097930 -0.494501
-0.007895 0.240731 -0.000414
-0.180744 0.003752 0.168404
0.142140 -0.129142 0.632117
0.269549 0.331443 -0.640720
0.299988 0.081431 -0.444168
0.009320 -0.025887 -0.211195
-0.039903 -0.057182 0.107951
0.191247 0.241067 0.207405
-0.389562 0.076305 0.133561
0.205100 0.087202 0.170318
-0.164735 0.184229 -0.716571
0.184546 -0.667854 0.027320
0.335275 0.334524 -0.618517
0.101028 -0.157265 0.849750
-0.140423 -0.319563 -0.179163
0.189564 -0.688649 0.032386
0.463430 0.198335 -0.510642
0.860058 -0.014566 0.778239
0.675208 -0.042331 0.778963
-0.009437 0.004738 -0.580522
0.284996 0.117241 0.181398
0.053210 -0.170057 -0.293007
0.515379 0.222825 -0.536000
0.131756 -0.023824 -0.403185
0.318092 0.259090 -0.553155
-0.151029 0.148834 0.106887
-0.447263 0.088440 0.119627
-0.030475 -0.068405 0.035900
-0.109130 -0.365588 -0.569749
-0.007837 0.183605 0.045422
0.378772 0.062192 0.538608
-0.151166 0.111877 -0.615206
0.081885 -0.107143 0.814861
0.000792 -0.023061 0.283972
0.105105 0.142368 -0.527467
0.533691 -0.065837 0.702822
0.004376 -0.035112 0.008532
-0.049657 -0.327713 -0.171494
-0.066785 -0.087579 0.234312
0.168110 -0.071360 0.693424
-0.212642 0.043421 -0.365325
-0.218881 -0.323444 0.441709
-0.349101 -0.031367 0.180546
0.209445 -0.566678 -0.014198
-0.037147 -0.059914 0.084596
0.580648 0.055216 0.613182
0.255745 -0.281344 -0.162622
0.424426 -0.031096 0.584025
0.113087 -0.053889 0.420280
-0.903916 -0.338953 0.181774
-0.026285 -0.028312 0.398199
-0.072525 -0.077257 0.197268
0.288579 -0.286553 -0.135735
-0.027616 -0.102974 0.279939
0.298714 0.343786 0.174524
-0.025695 0.005446 -0.258977
0.106878 -0.149656 -0.253044
-0.011275 -0.130571 -0.614554
0.326526 -0.085019 0.584995
0.087761 -0.694239 -0.039738
-0.130991 -0.170963 0.274424
-0.039288 0.038820 -0.812626
-0.128266 -0.110735 -0.267196
-0.279037 0.127825 -0.364721
0.158728 -0.064236 0.464824
-0.083938 0.358877 0.278935
0.062294 -0.569798 -0.128782
0.850392 0.011140 0.781515
0.847624 0.095305 0.708860
0.178489 -0.545614 -0.054471
0.094236 -0.025628 0.393630
0.198563 -0.181916 0.829052
-0.304687 -0.425100 0.458374
0.154311 0.594089 0.064518
0.211942 0.290451 0.175051
0.069604 0.055982 0.042061
-0.028393 -0.042549 -0.028572
-0.048449 -0.341629 -0.159314
-0.042292 0.192587 -0.370440
-0.391143 0.204814 -0.645593
0.010731 0.073077 -0.028950
0.277818 0.138666 0.521110
-0.269571 0.046073 0.119334
-0.154508 0.149831 -0.160712
-0.163908 -0.028188 -0.237564
0.274175 0.439655 0.083384
-0.364258 -0.258061 0.199152
0.006279 -0.198906 -0.583742
0.564627 0.008526 0.647650
-0.246475 -0.242556 -0.698163
-0.193413 -0.120150 -0.718140
-0.492506 0.111367 -0.222021
-0.431843 0.119650 -0.240374
0.111310 -0.340159 -0.229143
-0.569333 -0.250659 0.193546
-0.442271 0.215983 -0.313897
0.132117 -0.696532 -0.001348
-0.858086 -0.159987 -0.065135
0.240748 0.023385 -0.456558
-0.033913 -0.007564 -0.857065
-0.062584 -0.003997 -0.702366
-0.077629 0.165357 -0.130579
-0.019088 -0.031955 0.352329
0.074729 -0.514926 -0.122620
0.000908 0.011579 -0.270567
0.207334 -0.073749 0.648357
-0.138682 0.106788 -0.065961
-0.019353 -0.009400 -0.821623
-0.185705 -0.093234 0.206544
0.738198 0.072307 0.736410
0.275902 0.249466 0.236830
-0.258595 -0.121894 0.205801
-0.108035 -0.188725 -0.667289
0.522688 0.051573 0.589434
-0.263509 0.157967 -0.355307
-0.082508 -0.182643 0.306198
0.315752 0.031588 0.539855
-0.137181 0.107385 0.142764
-0.263343 -0.293310 0.358016
-0.128197 -0.427715 -0.624813
-0.089924 0.075840 0.151889
0.142478 -0.052312 0.448154
0.142878 0.289207 0.175418
0.240156 0.023062 0.233541
0.233929 -0.630398 0.025529
-0.356551 -0.014618 0.175556
-0.256215 -0.359926 -0.700383
0.128446 0.276698 0.190374
0.351560 0.081171 -0.409843
0.510894 0.120900 0.542644
0.074924 -0.020818 0.095403
-0.248154 0.234178 -0.711529
0.287935 0.122779 0.182840
-0.195684 -0.056601 0.180913
-0.057643 -0.331758 -0.617097
0.249612 -0.164648 0.775479
-0.179481 -0.091821 -0.703535
-0.169302 0.104318 -0.368254
-0.226907 -0.334001 0.448245
-0.168879 -0.217863 0.349684
0.107668 -0.216055 -0.238562
0.362982 0.063959 0.533783
0.474189 -0.024765 0.610706
-0.849044 -0.147408 0.003948
0.053558 -0.155117 -0.292883
-0.107872 0.554115 0.102289
-0.012472 -0.045124 0.160047
-0.067802 0.181754 0.016280
-0.414991 0.355409 -0.741023
-0.343724 -0.285352 0.289123
-0.594582 -0.309920 0.252009
0.135808 -0.441214 -0.169694
0.212980 -0.080860 -0.251650
-0.201852 0.056145 -0.371439
0.246881 0.231700 0.236954
0.630824 -0.089933 0.784039
-0.098891 -0.247170 0.407386
-0.265691 -0.207914 0.249362
-0.272756 0.061274 0.114132
-0.684742 -0.127624 -0.021306
-0.350908 -0.333951 0.346227
0.066566 -0.180081 -0.572356
-0.184484 0.002879 -0.271608
0.459752 0.287936 0.441733
-0.317762 -0.299014 0.323767
-0.048694 -0.128572 0.287997
-0.026499 -0.036348 -0.042402
-0.872803 -0.246375 0.145135
-0.009937 -0.067957 -0.312315
0.367537 0.214064 0.506991
-0.050804 0.132270 -0.330449
-0.048779 0.094543 -0.042569
-0.039290 -0.091329 -0.305173
0.086801 -0.044773 0.554757
-0.304763 -0.011378 -0.272991
0.143971 -0.497954 -0.111323
-0.285775 0.013195 0.137804
0.090048 0.459161 0.208258
0.130143 -0.107420 0.620179
-0.349724 -0.383547 0.397995
0.897760 0.094218 0.662085
0.238689 -0.085574 0.640626
0.000310 -0.014877 -0.666934
-0.080580 0.332278 -0.739448
-0.065021 0.148006 -0.628515
-0.014878 -0.035833 -0.168995
0.016022 -0.034609 0.083287
-0.498033 0.223094 -0.298305
-0.029804 0.128634 0.091291
0.001847 -0.025051 -0.029406
-0.371045 0.105446 -0.258173
-0.185288 -0.135041 0.214758
-0.347282 -0.323914 0.337853
0.425030 0.175651 -0.511760
-0.241276 -0.304677 -0.688401
-0.788996 -0.153340 0.039930
-0.059860 -0.207357 0.337400
0.012307 -0.048263 -0.083304
-0.369339 -0.392994 0.392763
0.269611 0.018932 0.242469
-0.214243 -0.367768 0.494134
0.415276 -0.080371 0.585545
-0.100079 -0.102221 -0.319895
0.350372 0.073753 -0.403833
-0.171041 0.186248 -0.361005
0.131163 -0.715504 -0.002410
0.095412 -0.132129 -0.298085
0.035218 -0.367592 -0.164231
0.007052 -0.212620 -0.583822
-0.132399 -0.373869 -0.608802
0.091445 -0.620630 -0.077511
-0.606849 -0.157189 0.064454
-0.404209 0.207211 -0.327101
0.180397 0.578985 0.081987
0.373390 0.303645 0.431713
0.113776 0.341558 0.268743
-0.607880 -0.236976 0.172216
-0.270014 -0.152630 -0.745477
0.212407 -0.105127 0.688899
0.038733 0.181068 0.089448
0.510448 -0.063725 0.690029
0.741463 -0.051985 0.814419
0.300445 0.430672 0.110954
0.173965 0.484811 0.198983
0.129881 0.603597 0.075248
0.579077 -0.081564 0.749193
-0.312190 -0.004775 -0.288513
0.013569 -0.112875 0.702508
-0.382535 -0.305799 0.315166
0.027238 -0.005850 -0.184942
-0.326370 -0.269821 0.290128
0.004798 -0.063045 0.142315
0.445699 -0.064847 0.601222
0.061897 0.169676 -0.553576
0.847721 0.191329 0.621755
-0.118465 0.191876 -0.037589
-0.004576 -0.005582 -0.478560
0.521594 0.258097 -0.551664
-0.105918 0.358581 -0.763775
-0.151295 0.152581 -0.159208
0.779125 0.206939 0.584997
-0.168841 -0.161558 0.244020
-0.244871 0.067143 0.122449
0.172606 -0.056753 0.450431
0.349592 0.124131 -0.473644
-0.189737 0.098311 -0.596582
0.009574 0.004139 -0.228825
-0.261052 0.098996 0.077876
-0.340376 -0.316095 -0.755273
0.521563 0.055505 0.585079
0.566348 -0.049740 0.712889
0.269366 0.111513 -0.505915
0.252394 0.136300 -0.545709
0.232716 0.028552 0.229185
0.330737 0.445931 0.103725
0.237981 0.233150 0.483323
-0.296768 0.044656 0.102281
-0.200258 0.183462 -0.727882
-0.113173 0.118062 0.134139
-0.415778 -0.275665 0.231462
0.206905 0.136591 0.152330
0.350455 -0.139417 0.689505
0.092466 -0.010871 0.110536
-0.984105 -0.239563 -0.019611
-0.195561 0.068878 -0.370835
-0.138705 0.107897 -0.659492
-0.438155 0.450057 -0.745976
-0.225950 0.081135 -0.545106
0.286162 0.270267 -0.588498
-0.278848 -0.083799 -0.190746
-0.216343 -0.175255 -0.705112
-0.029895 0.316590 0.276789
-0.911587 -0.186132 0.056420
-0.264674 0.051247 -0.337902
-0.137938 0.083172 -0.585197
-0.091387 -0.139291 -0.664889
-0.403994 -0.438935 -0.718350
0.259418 -0.100151 0.645954
-0.172821 0.206663 0.238985
-0.361256 0.161095 -0.621619
0.001034 -0.074167 -0.312761
0.347006 -0.128910 0.677196
0.177061 0.360770 0.112969
0.348967 0.380092 0.170239
0.106970 -0.035059 0.524829
-0.101903 0.193923 -0.394352
-0.297614 -0.114826 0.208582
0.836239 0.009095 0.785852
-0.110025 -0.327386 -0.164514
-0.066671 0.168574 -0.650448
-0.095710 0.180322 0.242781
0.029351 0.536908 0.133050
0.427899 0.289182 0.456515
-0.248294 0.365986 -0.431591
-0.368410 -0.263610 0.197263
0.213153 -0.253772 -0.187915
0.334488 0.167158 0.518134
0.361091 0.110514 -0.453844
0.375403 0.128788 -0.480214
-0.124344 -0.038079 0.199286
0.072846 -0.044204 0.670851
0.022248 0.066651 -0.570952
0.066750 0.625705 0.068238
-0.346654 -0.351967 0.366624
0.068540 0.550882 0.126438
0.005153 0.028953 -0.161448
-0.749810 -0.199011 0.108933
-0.027950 -0.033619 -0.105372
-0.023629 0.184472 -0.614375
-0.349500 -0.228072 0.211393
-0.200915 -0.252752 0.371015
-0.138429 0.181568 -0.396761
0.158878 0.545423 0.137680
0.271784 0.412155 0.113910
-0.015183 -0.298529 -0.218751
0.087510 -0.058154 -0.344312
-0.161869 0.213594 -0.358965
0.566557 -0.022248 0.674939
0.496672 0.244600 0.478285
-0.667345 -0.198978 0.122688
0.219390 0.284797 -0.643189
0.562622 0.224520 -0.546774
0.084666 0.469941 0.196545
-0.019885 0.130141 0.084867
0.192598 -0.597183 -0.007636
-0.428523 0.102780 0.112869
0.634458 -0.108598 0.797987
0.334378 0.271778 -0.565323
0.244733 -0.094067 0.642412
-0.030499 0.007656 -0.741111
0.181997 -0.136565 0.774341
0.252274 0.075477 -0.479540
0.087229 -0.098517 0.637281
0.105465 -0.387853 -0.185318
-0.680868 -0.131290 -0.015505
-0.055261 -0.077463 0.094220
-0.215240 -0.141253 -0.720494
0.008687 0.232196 0.023745
0.125309 -0.072819 0.561950
-0.281041 -0.178870 0.197739
-0.045138 0.606687 0.082739
0.351113 0.227179 0.506372
0.700504 0.058154 0.703613
0.416093 0.077432 0.539404
0.704141 0.125256 0.636317
0.719871 -0.079758 0.815314
-0.932239 -0.195258 0.043785
-0.042181 0.499169 0.176594
-0.085813 -0.125026 -0.296817
-0.154762 -0.251363 -0.689137
-0.099579 -0.354344 0.507822
0.266314 0.436984 0.073142
-0.316767 0.433663 -0.756083
-0.308251 -0.174278 -0.749067
-0.242223 -0.286561 -0.689002
-0.249609 0.235815 -0.706456
0.822768 -0.009553 0.791794
0.188402 0.223563 0.216011
0.289711 0.371483 0.153256
-0.184600 -0.069358 -0.732552
-0.372328 0.193881 -0.637282
-0.132179 0.107366 -0.632724
0.204733 -0.184658 -0.229086
-0.261290 0.380646 -0.712452
-0.038752 0.420430 0.239458
-0.327605 -0.061907 0.187922
-0.263848 0.161633 -0.353503
0.140537 0.569290 0.097690
0.266685 -0.147798 0.746030
0.133821 -0.045475 0.520529
-0.725341 -0.275434 0.197127
-0.097023 0.268734 -0.092967
-0.249289 -0.159639 -0.727486
-0.001512 0.165274 0.238227
0.281059 0.298955 -0.610508
-0.028028 -0.101684 -0.288771
-0.010319 0.144212 -0.505064
-0.221673 0.344193 -0.402833
-0.742720 -0.365684 0.273336
-0.136813 -0.134243 0.239190
-0.003085 -0.030400 -0.265297
0.230187 0.249057 0.217239
0.534119 0.194835 -0.544592
-0.006884 -0.042719 -0.441275
-0.298958 0.323769 -0.399419
0.271346 0.108117 0.521089
-0.116244 -0.225309 -0.686319
-0.088434 -0.024019 -0.750373
0.134098 -0.699917 0.011803
-0.175873 -0.056522 -0.719819
0.537754 0.017426 0.622661
0.590283 0.002779 0.651029
-0.138989 -0.358809 -0.625271
-0.770989 -0.134381 -0.001540
0.311803 0.057247 0.228444
0.538463 0.362017 -0.598446
0.615803 -0.011193 0.714933
-0.725417 -0.292609 0.219534
0.140022 -0.422084 -0.179153
-0.150154 0.051176 -0.400507
0.276688 0.318876 0.181225
-0.984059 -0.312460 0.102621
0.274966 0.176571 0.509632
-0.099925 0.051182 -0.422065
-0.041292 0.337759 0.291449
-0.000462 -0.159501 0.333374
0.717618 -0.034688 0.789185
-0.257584 -0.397370 -0.677450
-0.114008 0.169228 0.075153
-0.183576 0.026565 -0.307423
-0.489702 -0.041237 0.164347
-0.121784 0.165419 0.091178
0.278932 0.232053 0.494821
0.219645 -0.054065 0.596399
-0.394273 0.014479 0.165551
-0.059020 0.331393 -0.740455
-0.212033 0.208426 -0.355141
0.496664 -0.001207 0.620683
0.912963 0.078922 0.684673
0.006345 0.184805 -0.608253
0.198852 0.487013 0.205540
0.058266 -0.197435 -0.574138
-0.165103 0.094396 -0.578120
0.071284 -0.116248 0.320140
-0.100315 0.100224 0.135919
0.303466 0.267988 -0.571860
-0.019882 -0.048766 -0.330802
0.304267 0.020995 0.540346
0.665890 -0.040220 0.780692
0.231835 -0.328676 -0.141673
-0.918127 -0.320725 0.163390
-0.094762 -0.278078 0.466781
0.283696 -0.215952 -0.175998
0.009297 0.483234 0.191833
-0.369168 0.060615 0.143833
-0.266082 -0.169726 0.209966
0.007091 -0.062596 0.290193
-0.025163 -0.018738 -0.412729
-0.317344 -0.418865 -0.685256
0.226812 0.360443 0.128129
-0.168882 0.152017 -0.707239
0.141363 -0.063820 0.541589
-0.553934 0.198028 -0.265891
0.258410 -0.064845 0.507208
-0.007726 -0.049607 0.400280
-0.208069 0.045256 -0.364827
-0.081104 -0.014402 -0.828530
0.142792 0.026684 0.192829
-0.110316 0.358562 -0.763322
-0.719732 -0.210662 0.126223
0.105952 0.541777 0.142320
0.053180 -0.667334 -0.085552
-0.131007 0.041945 0.171736
0.682091 0.059421 0.681300
-0.221942 0.092597 -0.593955
-0.094436 -0.031983 -0.703455
0.292047 -0.074797 0.564749
-0.086330 0.093831 -0.040659
0.060560 0.420176 0.245317
-0.300856 0.325249 -0.397633
0.218938 -0.129159 -0.237402
-0.418801 0.135165 0.069846
-0.197164 -0.218951 0.331956
-0.113748 0.054531 0.168808
0.490946 0.105548 0.544417
0.400079 0.306816 0.415915
0.196641 0.511238 0.171089
-0.224157 0.201744 -0.725412
0.185410 -0.255939 -0.195257
-0.787903 -0.362712 0.262123
0.317308 -0.067690 0.523098
-0.034774 0.142946 -0.526292
-0.000193 -0.187738 -0.244400
-0.490338 0.063368 0.123170
0.010513 0.132004 0.099935
0.166434 -0.040715 0.590362
0.308484 0.057989 -0.399456
-0.021561 -0.126609 -0.626483
0.437921 0.075188 0.540746
-0.643127 -0.291272 0.224632
0.285422 0.039582 -0.406651
0.359598 -0.121541 0.679928
0.117242 0.394828 0.275949
0.033203 -0.177812 -0.250908
-0.116684 -0.268199 -0.695953
-0.263934 0.364895 -0.427843
0.250355 -0.063820 0.591351
-0.861599 -0.144451 -0.042844
0.051649 -0.083259 0.788283
0.159483 -0.120606 0.614826
0.236626 0.107490 0.169346
0.173565 -0.052964 0.463212
0.325570 -0.154227 0.765137
-0.245122 0.307327 0.203053
-0.089756 0.068568 0.161434
0.252584 -0.141804 0.737657
0.763405 -0.052907 0.821866
0.115729 -0.039501 0.648707
-0.254410 -0.334664 -0.686863
0.001297 -0.021522 0.032899
0.046023 0.122681 0.106339
0.200573 -0.126353 -0.237171
-0.338114 0.119589 -0.297001
-0.271686 -0.327294 0.394405
-0.787324 -0.305205 0.222699
-0.023195 -0.027556 -0.604536
-0.070358 -0.011448 -0.458619
-0.261906 -0.407185 0.483138
0.515260 0.170499 0.512917
0.754511 -0.049903 0.816830
-0.008958 0.078506 -0.024989
-0.293041 -0.276636 -0.731399
-0.443197 -0.442031 -0.732607
0.205004 0.508601 0.160068
-0.439557 0.085455 0.124233
-0.025253 0.203269 -0.401295
-0.222343 0.123991 0.105128
0.279833 -0.159819 0.771853
0.089877 -0.212364 -0.244240
-0.006373 -0.042960 -0.363858
0.203952 -0.644020 0.023324
-0.351059 0.443033 -0.764263
-0.013362 0.437440 0.234653
-0.105332 -0.186604 -0.234640
0.162846 -0.645388 -0.009355
-0.214432 -0.183774 -0.702734
0.900392 0.057028 0.693664
0.340355 0.325077 0.203309
0.652571 0.027339 0.688314
0.225615 -0.159466 0.771309
-0.315205 -0.273068 0.300766
-0.183592 -0.344871 0.497944
0.277790 0.369791 0.141864
0.417174 0.064010 -0.409168
0.376461 0.026521 0.548976
-0.095411 0.542628 0.130304
0.016442 -0.058426 0.143542
0.035188 0.267732 0.261097
0.342040 -0.145888 0.737902
-0.025050 -0.058295 0.090094
-0.172259 0.301702 -0.724330
0.134080 -0.042721 0.521936
-0.450536 -0.430391 -0.735118
0.048661 0.184997 0.092091
-0.113188 0.295809 -0.709969
0.361346 -0.137055 0.692362
-0.165270 -0.266086 0.427119
-0.030204 -0.018377 -0.126033
0.017976 0.056061 -0.858680
0.203444 0.248127 -0.623596
-0.355024 -0.137030 0.210187
-0.767043 -0.242233 0.135262
-0.314489 -0.039480 -0.250001
0.166062 -0.081753 0.710711
-0.106971 0.302695 0.216631
-0.127465 0.176224 -0.388182
-0.184786 -0.031105 -0.227635
-0.216229 0.087727 -0.582485
-0.400892 0.162427 -0.637843
0.049745 -0.049218 0.722267
-0.132837 -0.078318 -0.690995
0.009858 0.192851 0.054618
-0.015578 -0.335286 -0.176434
-0.918958 -0.225508 0.101820
0.074434 -0.689220 -0.062242
0.133458 -0.043024 0.514422
0.089637 -0.080943 -0.278740
0.674967 -0.073507 0.801012
-0.034266 0.211017 0.218007
-0.844208 -0.348398 0.233852
0.295889 -0.080486 0.523247
-0.059622 0.483123 0.187488
0.175660 -0.067786 -0.265823
0.694184 -0.026620 0.775803
-0.256262 0.029307 0.132325
-0.066710 -0.378375 -0.116555
0.497170 0.139845 0.529832
-0.152995 -0.340431 -0.654015
0.205737 0.075087 0.176189
0.272819 0.426262 0.111829
0.427111 0.305183 0.425245
-0.491418 -0.290484 0.235458
0.132691 -0.098992 0.605407
0.196211 0.404309 0.079333
-0.003244 0.001349 -0.595611
-0.183377 -0.198856 0.270495
0.710023 0.044930 0.742687
-0.240943 -0.305629 -0.687861
-0.703237 -0.217425 0.130905
-0.209915 0.309648 -0.389416
-0.277642 0.345769 -0.410856
0.355713 -0.081562 0.584002
0.186195 -0.017802 -0.276102
-0.015890 0.015434 -0.625507
-0.151270 0.294271 0.209218
0.237498 0.182150 -0.575330
0.317962 0.343910 0.185474
-0.596661 -0.168952 0.076734
0.096870 -0.388945 -0.174648
-0.418830 -0.203850 0.220564
-0.515425 0.083742 0.077386
-0.078465 0.200162 -0.682003
0.141831 -0.651137 -0.028057
-0.270754 -0.063642 -0.203189
0.112612 0.148759 -0.531185
0.206506 -0.304265 -0.172802
-0.556510 -0.114967 0.168289
0.127493 -0.075091 0.571543
-0.015337 0.178119 -0.604633
-0.145772 0.337103 -0.742967
-0.515191 -0.298351 0.215189
-0.055462 -0.084204 -0.318222
0.133746 0.042839 -0.474187
0.016304 0.639085 0.040087
0.032882 -0.054029 0.344067
0.288213 -0.071496 0.524533
-0.233256 -0.075045 -0.184724
0.247715 -0.115499 0.684260
0.504424 0.244911 0.471122
-0.763603 -0.208952 0.115793
0.485820 -0.076853 0.676443
-0.141166 0.224948 -0.369401
0.379256 0.299075 -0.591167
-0.077479 -0.077315 -0.671288
-0.076870 0.205363 -0.406758
-0.038866 -0.014299 -0.824000
0.221843 0.171406 -0.586578
-0.076526 -0.164073 -0.668047
-0.713033 -0.324899 0.259689
-0.642979 -0.210562 0.138409
-0.098233 0.363574 -0.771175
-0.457546 0.107788 -0.225843
0.405153 0.302948 0.418766
0.133713 0.573639 0.112040
-0.129540 0.142930 -0.662734
-0.561280 -0.033997 0.133443
0.133432 -0.069408 -0.357607
-0.435147 0.454026 -0.758766
0.101994 -0.040709 -0.365351
0.472786 -0.058547 0.656940
0.071379 -0.111853 0.822626
-0.263227 -0.232054 0.296360
0.046693 0.113397 -0.492038
-0.228396 -0.132927 -0.754360
-0.060525 -0.081460 0.703963
-0.349436 0.301062 -0.701963
0.032338 0.077699 -0.926023
-0.109275 0.096926 0.147041
-0.000415 0.016272 -0.120416
-0.071439 -0.181187 -0.669143
-0.521282 0.080831 0.087209
0.055722 -0.094672 0.303987
-0.031179 -0.331568 -0.175834
0.279478 0.228645 -0.570077
0.014153 0.024926 -0.060953
-0.273959 0.052217 0.114414
0.385401 0.085071 -0.427934
0.011126 -0.054294 0.026800
-0.334034 -0.370482 -0.715962
-0.203709 0.297621 -0.737965
0.071558 0.087849 -0.484432
-0.178847 -0.283360 -0.684078
-0.093815 0.055844 0.167532
0.323461 0.327816 -0.615091
-0.053010 0.299439 0.233713
-0.103476 -0.298677 0.481813
0.775201 -0.024963 0.802514
-0.098128 0.565542 0.112294
0.015856 -0.135584 0.320563
-0.114665 0.107093 -0.066072
-0.096962 -0.016404 0.187737
-0.122896 -0.378928 -0.592982
-0.101894 -0.035646 0.200490
-0.420090 -0.399922 -0.776800
0.314658 0.404503 0.139103
-0.051763 -0.309301 -0.193429
-0.236908 -0.231909 -0.699173
0.871163 -0.011024 0.811218
0.080509 -0.046742 -0.348479
-0.103393 0.564742 0.116235
0.397647 0.238967 0.500456
-0.001238 -0.066583 -0.013045
-0.312348 -0.360407 0.396185
-0.234246 0.289267 -0.710385
0.143740 -0.102943 0.760794
0.300003 0.357653 0.170372
0.401187 -0.007877 0.566573
0.309319 -0.143229 0.748427
-0.035379 0.270708 -0.037630
0.375362 0.095249 -0.432666
-0.159710 0.107939 -0.603115
0.136329 -0.666741 -0.020454
-0.037714 0.059109 -0.870951
-0.387342 0.368802 -0.719048
0.177681 -0.119982 -0.248035
0.012333 -0.220899 -0.226994
-0.297338 -0.208273 0.214823
-0.482176 0.000851 0.156578
-0.053039 -0.351744 -0.587199
-0.038589 0.177588 0.032924
-0.362500 0.178365 -0.329790
-0.091209 0.056445 0.168178
-0.012722 -0.031057 0.094627
0.222015 0.168745 0.481519
0.383703 0.329472 0.382433
0.701428 0.006727 0.768618
-0.537372 -0.283450 0.209303
-0.187924 -0.193493 -0.694103
0.011638 0.112835 -0.910224
0.433407 0.008717 0.578997
0.077855 -0.235114 -0.265964
-0.258419 0.036761 0.133082
-0.093716 -0.118869 -0.668936
0.236983 0.300070 -0.643151
0.000523 0.016064 -0.137032
-0.948279 -0.216470 -0.034828
-0.016150 -0.024890 0.038727
0.300208 0.098262 0.188077
-0.036697 -0.113264 -0.302131
0.294748 0.255099 -0.568871
0.313698 0.093872 -0.451335
-0.098928 0.205721 -0.019124
0.156054 0.588382 0.080791
0.892150 0.101392 0.662402
0.138152 -0.110724 0.789686
0.027213 -0.116352 -0.302771
-0.748757 -0.157341 0.053454
-0.228595 -0.222193 0.312758
0.453061 0.250786 0.486208
0.679427 -0.043724 0.782071
-0.098513 0.251508 -0.709205
0.405498 0.309962 0.415199
0.310727 -0.115036 0.665981
-0.138932 -0.024254 -0.716631
-0.095972 -0.074709 -0.336185
-0.069229 -0.133516 -0.295101
-0.303980 0.431242 -0.750660
-0.180522 -0.101022 -0.706857
0.680223 -0.075469 0.795829
-0.112873 0.123352 -0.074282
0.249841 -0.057164 0.567700
0.230170 0.061027 -0.484056
-0.038113 0.000831 -0.583669
0.163465 -0.074291 0.703694
0.124351 0.273891 0.226807
0.007269 -0.064683 0.043997
-0.314456 -0.107237 0.205539
0.575282 0.246924 -0.574424
-0.285113 0.370252 -0.709663
-0.331444 0.202384 -0.351849
-0.161719 0.205544 -0.712884
-0.060652 0.313823 -0.730325
-0.142467 0.120660 -0.637486
-0.393404 0.331027 -0.725082
0.326661 0.388158 0.156889
-0.551604 0.049653 0.080274
0.154366 -0.351313 -0.172902
0.848222 0.102835 0.700987
0.050359 0.105613 0.061327
-0.074013 0.163148 0.028172
0.237594 0.075830 0.511426
-0.475570 0.194143 -0.277122
0.209072 -0.040384 -0.272677
-0.192729 -0.198837 0.263154
0.108560 0.001563 -0.434723
-0.048413 -0.315260 -0.630812
0.121883 -0.414750 -0.176308
-0.142166 -0.114715 -0.685295
-0.471654 0.237084 -0.332905
0.339042 0.025281 -0.342758
-0.812254 -0.262710 0.176503
0.355632 0.066881 -0.389010
0.041103 0.065625 -0.885171
-0.280589 -0.067050 -0.196431
-0.007758 0.097808 -0.880012
0.297055 0.076876 -0.439952
-0.407696 -0.127091 0.196484
0.005942 -0.036450 -0.154764
0.025515 0.504479 0.169486
-0.344763 0.166947 -0.634341
-0.178009 0.119527 -0.618933
-0.040634 0.048501 -0.274539
0.226314 0.024042 -0.457902
0.002144 -0.093567 0.674408
-0.938403 -0.341453 0.153093
0.124448 0.285426 0.241220
-0.445442 -0.145359 0.201280
0.767893 0.130111 0.675629
0.067110 -0.563661 -0.133547
-0.107383 -0.110013 0.233647
-0.926651 -0.183999 0.007202
0.700969 0.110930 0.657937
-0.827977 -0.180849 0.078252
-0.797775 -0.314152 0.227331
-0.356766 0.146517 -0.630089
-0.763200 -0.271385 0.190082
0.843100 0.033582 0.752956
-0.236372 0.171318 -0.684719
-0.190094 0.324576 -0.748307
-0.128416 -0.147625 0.253553
-0.405241 0.186449 -0.315199
-0.418326 -0.399616 -0.747914
-0.203878 -0.345671 0.487389
0.276520 0.227868 -0.573555
0.168172 -0.173887 0.837979
-0.758620 -0.198178 0.104218
0.045724 0.119136 0.073432
0.521415 -0.043232 0.670521
0.194044 -0.161748 0.801845
-0.832733 -0.145015 -0.000808
0.503775 0.331653 -0.581310
0.169694 0.085739 0.160531
0.724082 -0.032838 0.796951
-0.147070 0.024913 -0.413046
0.443593 0.325052 -0.587241
-0.205213 0.213797 -0.356735
0.532692 -0.096355 0.731122
-0.112324 0.164813 -0.377121
-0.273779 0.016776 0.133968
-0.001523 -0.002177 -0.600625
-0.109233 -0.017312 -0.380691
-0.092795 -0.092110 0.137086
0.346634 0.170701 0.515151
0.140572 -0.471199 -0.146095
-0.440284 0.116235 -0.233444
-0.450392 0.433039 -0.727164
-0.247280 0.090399 -0.378114
-0.117605 0.224020 -0.714870
0.090130 -0.244852 -0.249976
-0.133768 0.138412 -0.659379
-0.063384 -0.182458 -0.230093
0.547678 0.017135 0.621774
-0.400643 0.170216 -0.307626
0.285974 -0.171097 0.787431
-0.029570 -0.043393 0.077263
-0.061200 0.092233 -0.039716
-0.302319 -0.387875 -0.688514
0.038266 -0.140640 -0.288983
0.226023 -0.094043 0.663266
0.013610 -0.339906 -0.184540
0.014239 -0.010370 -0.389514
0.225328 -0.110736 -0.245083
0.301256 0.059543 0.534760
-0.221720 0.052718 -0.364240
-0.096484 0.030484 -0.433765
0.490961 -0.014843 0.626403
0.200166 0.311096 0.152026
0.310799 0.367025 0.169729
0.094569 -0.519764 -0.125699
-0.022940 0.074375 -0.015377
-0.142490 -0.215574 0.340410
0.174246 0.325543 0.142121
0.453572 -0.081057 0.629718
0.366057 -0.110015 0.651023
-0.042372 0.620697 0.069073
-0.581154 -0.256789 0.198144
0.760902 0.125899 0.671906
0.535080 0.233783 -0.544890
-0.562162 -0.063197 0.145835
0.896788 0.034546 0.730722
-0.916396 -0.176703 -0.002884
-0.296948 -0.452710 -0.673503
-0.134461 0.285131 -0.399378
-0.103684 0.155202 -0.118798
-0.022680 -0.012258 -0.281694
0.111829 0.318398 0.141802
0.197586 -0.214531 -0.215679
0.218514 0.277371 0.189363
-0.048017 0.266679 0.213531
-0.024405 -0.023427 -0.433759
-0.540312 -0.290583 0.215634
0.734888 -0.026294 0.797306
0.415778 0.021025 0.561066
0.022329 0.011387 -0.172860
0.553928 0.317295 -0.580340
-0.026921 0.001426 -0.280938
-0.237448 -0.198724 0.267450
-0.032340 -0.078590 0.069792
-0.018363 0.138371 -0.104987
-0.101976 0.134539 0.120222
0.156579 0.503244 0.175868
-0.378264 0.307538 -0.714544
0.015199 0.005658 -0.141560
-0.943290 -0.158300 -0.039813
-0.315910 -0.417220 0.448617
-0.388056 0.092849 -0.240476
0.708878 -0.010660 0.781422
-0.262627 -0.205401 -0.714429
0.737930 0.056826 0.741172
0.848111 0.137632 0.667241
-0.007443 0.108614 -0.050733
0.515995 0.228673 -0.541703
0.025358 0.411866 0.278785
-0.095700 -0.239770 -0.682980
-0.385718 -0.277928 0.240154
-0.383389 -0.350008 -0.764050
-0.023400 -0.029786 -0.071493
0.141952 -0.102389 0.604303
0.075318 0.135551 -0.513926
0.728268 0.111635 0.677618
-0.188686 0.035921 -0.329125
-0.105887 -0.141694 -0.666806
-0.413539 0.413266 -0.731182
0.168231 0.300187 0.159104
0.370239 0.122619 -0.467085
0.317890 0.137573 0.524901
0.221598 -0.495400 -0.047945
0.248829 0.047133 -0.465472
-0.175237 -0.261029 0.411350
-0.463754 0.202409 -0.295084
-0.102529 0.191947 -0.010896
-0.537283 -0.290855 0.215013
0.516182 0.186138 -0.523602
-0.050942 0.043875 -0.814555
0.145643 0.354793 0.107151
-0.121115 -0.030222 -0.363370
-0.165624 0.134505 -0.654930
0.065776 0.136609 0.115993
-0.643243 -0.151118 0.053615
-0.204548 -0.140629 0.192340
-0.025119 0.022542 -0.544904
0.320622 0.307886 -0.600975
-0.204241 -0.014824 0.165804
-0.159169 -0.114371 0.169051
0.102183 0.006305 -0.429411
0.118911 0.237379 0.213725
-0.372550 0.158582 -0.621010
-0.056259 0.154822 -0.347708
-0.015386 -0.029073 0.602294
0.008936 -0.404545 -0.116712
0.246659 -0.537096 -0.027815
0.144895 0.112034 0.143289
-0.082826 0.117246 -0.070225
0.328040 -0.099658 0.627671
0.046770 0.141998 -0.907260
0.323722 0.060932 0.229813
-0.146845 -0.111725 0.201292
-0.018807 0.091059 -0.874927
0.031431 -0.383138 -0.143469
0.502376 0.192815 -0.519411
0.502618 0.192429 -0.518115
0.858508 0.005292 0.780298
-0.441459 0.076457 0.130058
0.046360 -0.122832 0.687614
0.006359 -0.189123 -0.586251
0.030892 0.074923 -0.920019
