0.570588 -0.187638 0.466900
0.119382 0.043688 0.245209
-0.503472 0.353429 0.313706
0.161278 -0.222981 -0.200729
-0.135259 -0.573201 0.245836
0.166353 -0.274553 -0.037284
0.646846 -0.059131 0.383493
0.261833 -0.167994 0.264063
0.221485 0.370296 -0.636182
-0.497070 0.325224 0.331893
-0.265014 0.201950 0.289331
0.218763 0.371682 0.022601
0.187446 -0.325233 0.730283
-0.076644 0.039352 -0.692394
0.046035 0.097094 -0.780617
0.226633 0.101740 0.164662
-0.304990 0.090491 -0.476479
0.594268 -0.058274 0.355599
0.018358 0.068925 -0.638900
0.005827 -0.526260 0.215041
-0.146923 -0.003403 -0.013298
0.187769 0.014550 0.293402
0.014381 0.172700 0.100595
0.093002 -0.071088 -0.608747
0.120126 0.082573 0.173582
0.600120 -0.056877 0.363776
-0.492158 -0.047702 0.046961
0.260905 0.134412 -0.533691
0.099481 -0.261168 0.516551
-0.421311 0.112079 -0.457246
-0.416371 0.045057 0.476710
-0.290946 0.091110 0.314572
-0.138863 0.052512 -0.274098
-0.174173 0.004079 0.179821
0.228555 -0.183236 0.528617
0.344531 -0.316885 0.868589
0.230626 -0.065643 0.532952
-0.191338 -0.037379 0.174592
0.087325 0.131487 -0.598703
0.281478 -0.089858 -0.345208
0.198817 -0.248225 0.300203
0.628977 -0.012791 0.318951
0.297290 0.253182 0.092188
-0.255954 0.039927 0.242559
0.143444 -0.190221 -0.242487
0.564154 -0.162847 0.426264
0.247003 -0.212505 0.296083
0.039146 0.355058 -0.176003
-0.064162 0.273944 0.031351
0.198397 -0.243974 0.286558
0.001145 0.196432 -0.154996
-0.205221 0.392724 -0.234613
0.279581 0.165507 -0.556377
-0.020041 0.058535 0.207447
-0.061973 0.351309 -0.205327
-0.238316 0.236039 -0.142812
0.152280 -0.305170 0.682965
0.271615 -0.234120 0.642986
-0.486396 0.143839 -0.474927
0.048639 0.265422 0.023476
0.099487 0.049952 0.219315
-0.268551 0.204162 0.288742
0.401176 0.348869 0.043227
-0.173446 0.269362 -0.220644
-0.043220 0.155742 -0.140414
0.526348 -0.170394 0.431403
-0.598360 -0.013721 0.055019
-0.329370 0.082663 -0.453322
0.109441 0.138884 -0.732561
-0.091174 0.027489 -0.493106
-0.324452 0.038054 0.276881
-0.154884 0.039827 -0.404774
0.358254 -0.407586 0.986871
-0.378146 0.033474 0.434889
0.634682 -0.076299 0.398731
-0.471257 -0.013207 0.020520
0.117064 -0.318192 0.687962
0.238489 0.075805 0.188880
0.156237 -0.212903 -0.261618
0.126319 0.264665 -0.629138
0.072174 0.150936 -0.804058
-0.197000 0.177727 0.052783
-0.147105 0.097579 -0.252390
0.409642 0.354502 0.038240
-0.025747 -0.487224 0.165491
-0.061767 0.277607 0.027941
-0.036429 0.101668 0.104460
0.239474 0.174275 -0.565746
0.255087 -0.158808 0.526442
-0.314843 0.322882 -0.189184
-0.200678 0.258896 -0.191906
-0.137712 -0.460683 0.076774
0.251573 -0.243255 0.521466
-0.188521 0.146913 -0.191970
0.081740 0.153388 -0.732500
-0.338087 0.031482 0.410534
-0.356437 0.118967 0.370277
-0.161374 0.119555 -0.540000
-0.110437 0.575051 -0.322942
-0.033358 -0.380270 0.061724
0.453891 -0.163955 0.364260
-0.008867 0.047370 0.187514
-0.108518 0.023149 -0.441008
-0.148886 0.023653 -0.457404
0.076604 -0.024461 -0.379901
-0.328511 -0.135941 0.495142
-0.175436 0.024763 -0.440244
-0.051754 0.173141 -0.760505
0.171733 0.028049 -0.422505
-0.387016 -0.156176 0.494402
0.074156 0.117423 -0.853987
0.026724 0.378061 -0.202832
0.560081 -0.153804 0.408300
0.162346 -0.232187 -0.052755
0.260862 -0.199628 0.295801
-0.020518 -0.013888 0.220708
-0.163047 -0.632225 0.268843
-0.229685 0.101326 -0.089422
-0.086053 0.470894 -0.274722
-0.245335 -0.117547 0.021054
0.707009 0.029389 0.291795
-0.186812 0.045699 -0.480112
-0.209496 0.008104 0.155722
-0.044158 0.162803 -0.147483
0.084843 -0.315536 0.022322
-0.121975 0.307242 -0.722896
-0.045688 -0.510601 0.204504
0.019885 0.005839 -0.376720
0.041164 -0.549858 0.243468
0.318117 0.090073 0.544489
0.116024 -0.097758 -0.328954
-0.522064 0.144084 -0.474027
-0.001639 -0.080677 -0.287718
0.239661 -0.270980 0.523994
-0.170210 0.037429 -0.504719
0.177630 0.153490 -0.575217
0.537689 -0.191777 0.468042
0.217258 0.323510 -0.619662
-0.516937 0.018319 0.001188
-0.224795 0.317628 -0.223163
0.420766 -0.080833 -0.434344
0.184936 -0.049165 0.495757
-0.026111 0.055633 -0.384572
0.701294 -0.002504 0.340447
0.461537 -0.192627 0.442030
0.218537 0.215544 0.096598
0.364059 -0.276949 0.459637
-0.232581 -0.162094 0.098662
-0.157061 -0.429314 0.018504
0.312813 -0.244751 0.498714
0.278813 -0.358293 0.906147
-0.105871 0.056375 -0.568972
0.360670 -0.100209 0.241185
0.133954 0.067477 -0.449275
0.092518 0.097005 0.149317
0.177139 -0.020749 0.453311
-0.076344 0.032037 -0.614509
0.282303 -0.348462 0.898095
0.285887 0.122910 0.161622
0.233741 -0.345708 0.862090
-0.168448 -0.629649 0.265291
-0.270329 0.187467 0.297469
0.399467 -0.070061 0.222301
0.155334 -0.209019 -0.245585
-0.229818 0.108057 0.226226
0.103324 -0.096047 -0.536021
-0.159958 0.008340 0.041087
-0.239410 -0.028904 0.246218
0.336578 -0.365198 0.934786
0.272050 -0.300008 0.746954
0.292133 0.347978 -0.631645
0.080199 -0.256349 0.502144
0.300682 -0.042058 0.549709
-0.379618 0.309144 0.356146
0.120100 0.055517 -0.505514
-0.501252 -0.127660 0.083084
0.347269 0.375085 0.036526
-0.279117 -0.189643 0.139859
-0.167141 0.278537 -0.225121
0.236460 -0.259687 -0.030914
-0.012437 -0.021564 0.212275
0.596217 -0.077998 0.382642
-0.141496 0.001612 -0.185826
-0.524911 -0.112201 0.079071
0.235227 -0.079243 -0.361022
-0.272242 -0.056281 -0.021249
0.106694 -0.124343 -0.524120
0.025491 -0.443261 0.098025
0.143713 -0.080468 -0.383714
0.227937 0.162475 -0.564633
-0.245881 -0.000886 -0.041964
-0.692125 0.002857 0.076744
-0.151251 0.133046 -0.239407
0.077992 -0.066035 -0.380983
-0.141825 0.040024 -0.304230
0.172253 -0.229732 -0.106050
0.207489 0.285205 -0.602793
-0.349359 0.192929 0.279905
0.332862 -0.162720 0.297416
-0.184718 0.199749 0.022373
-0.009469 0.182144 -0.732710
-0.285355 0.105890 -0.487418
-0.316299 0.190650 0.336329
0.238525 -0.270023 0.537256
-0.063832 0.203919 -0.193684
0.527203 -0.194450 0.474739
-0.447485 0.067268 -0.050197
0.207219 -0.250662 0.548669
-0.192103 -0.566421 0.194602
0.036134 0.218247 -0.749325
-0.211378 0.158151 0.208977
-0.292799 -0.196526 0.158940
-0.154269 0.165365 -0.239769
0.260604 -0.377896 0.920356
0.123103 0.142575 0.092090
-0.055522 0.029507 -0.630231
-0.291332 0.012561 -0.408285
0.261173 0.349764 -0.627597
-0.007693 -0.331823 -0.027002
0.112569 -0.142884 -0.268037
-0.312175 0.333478 0.268208
0.345231 -0.237310 0.720192
0.164338 0.083463 0.162359
0.192963 0.329805 -0.646223
-0.393268 0.406442 0.263604
0.360475 -0.131772 -0.344439
-0.261099 0.119783 -0.101852
-0.069206 -0.006475 -0.412536
-0.135749 0.556809 -0.308268
-0.218094 -0.140170 0.053644
-0.198045 0.211532 0.253833
0.076856 0.115314 -0.562544
-0.394570 -0.169452 0.489913
-0.172927 0.001000 0.083892
0.289532 -0.070511 0.566699
-0.332233 -0.077965 0.016300
0.215848 -0.257842 0.176231
0.316376 0.278941 -0.603549
0.111421 0.263906 -0.622189
-0.042667 0.020791 -0.346476
-0.086355 -0.411803 0.063137
0.322428 0.094868 0.539760
-0.241120 -0.214419 0.188887
0.132745 -0.530617 0.249917
-0.222731 0.238717 -0.150052
-0.183537 0.009786 0.118733
0.403187 -0.087079 0.259328
-0.098902 0.240200 -0.697182
-0.258886 0.064027 0.242565
-0.071559 0.210685 0.076406
0.243949 0.197989 -0.588691
-0.090379 0.000431 -0.477130
-0.301484 0.089857 0.319838
-0.448658 -0.111324 0.041634
0.160967 -0.177117 -0.089530
-0.169008 -0.013020 -0.137291
0.193651 0.120286 0.140093
-0.207832 -0.087165 -0.023209
0.161912 -0.314173 0.699968
0.185638 -0.239639 0.020688
-0.247897 0.165829 -0.165709
0.363845 -0.136014 0.292519
-0.272014 0.183164 0.294714
-0.496453 0.154502 -0.492316
0.134530 -0.219569 -0.062364
-0.157314 0.031706 -0.461254
0.008905 0.066351 -0.644312
-0.397562 0.012283 0.474152
0.255442 -0.147018 0.214041
-0.139759 0.005980 -0.042704
-0.517666 0.321327 0.325163
-0.174763 0.053164 -0.500323
0.208428 0.267233 0.071469
-0.020754 -0.488631 0.166901
0.050550 0.137801 -0.786484
0.273012 -0.290736 0.721184
0.238963 -0.261046 0.387478
-0.028614 0.065902 0.083466
0.175509 0.162706 0.096200
-0.145428 -0.019861 -0.208445
-0.070921 0.192713 -0.738167
0.051662 -0.129435 -0.269170
0.113862 -0.338972 0.000703
0.300767 -0.340560 0.890286
-0.200048 -0.001014 0.229786
-0.258354 -0.198995 0.158990
0.192692 -0.356577 0.101620
0.207651 0.302544 0.054006
-0.236035 0.058721 -0.493988
-0.237648 0.276369 -0.190052
-0.253647 -0.584251 0.151122
-0.421496 0.419100 0.252697
-0.097174 0.109439 0.110180
0.450655 -0.159689 0.341229
-0.063386 0.187837 -0.757443
0.434878 0.355628 0.028227
0.140051 -0.177220 -0.353747
0.013528 0.054004 -0.759357
0.238167 -0.201565 0.278551
-0.514555 0.159560 -0.496744
0.105117 0.278361 -0.629447
0.335701 -0.222041 0.365596
-0.223078 -0.045137 0.222139
-0.104014 0.008592 -0.448576
0.128043 -0.093110 -0.346649
-0.354403 0.193199 0.369210
0.272400 0.426943 -0.011499
0.014867 -0.041946 -0.372113
-0.286751 0.090750 -0.074867
0.157681 -0.260583 0.550798
0.314171 0.011101 0.289852
0.265011 -0.243527 0.307507
-0.242382 0.069070 0.238631
0.021769 -0.320891 -0.017251
0.178156 -0.235144 -0.000928
0.297526 0.209582 0.130072
0.159398 -0.315946 0.044559
0.425991 -0.039752 0.625993
0.569461 -0.203926 0.497900
0.146898 -0.216311 -0.168424
-0.267078 0.109849 0.310715
-0.447146 0.115528 -0.453695
0.468991 -0.089333 0.288315
0.153915 0.081752 0.164761
0.249861 0.310967 0.056246
0.117051 -0.216900 0.492438
0.661881 -0.074616 0.397258
0.371356 -0.353824 0.930164
-0.145503 0.008356 -0.271391
0.206512 -0.288821 0.685863
-0.072518 0.003802 -0.435131
-0.362384 0.089972 -0.450701
-0.126981 0.212725 -0.676510
-0.148376 0.030436 -0.500216
-0.289498 0.108099 -0.487928
0.027037 0.129679 -0.807412
-0.219567 0.041811 -0.496008
-0.179134 -0.155113 0.058654
-0.361319 -0.035475 0.486778
0.046027 0.280388 -0.606217
0.032120 0.206761 -0.615945
-0.235506 0.049627 -0.064339
0.122629 0.203141 0.090305
-0.389250 0.161874 0.390881
-0.238815 0.183553 0.290938
-0.613287 0.070333 0.010638
0.405060 -0.128444 0.322509
0.150196 -0.272148 -0.088960
-0.100995 -0.545929 0.240656
-0.037192 0.010844 -0.611068
-0.428875 0.314756 0.369577
0.138951 0.063918 0.201334
0.289423 -0.319775 0.828681
0.101849 -0.071999 -0.641639
0.679428 0.031385 0.271215
0.293140 -0.135054 0.216837
-0.066581 0.048194 0.080400
0.083456 -0.538171 0.246402
-0.166468 -0.023803 -0.151533
-0.328353 0.023321 0.382365
0.051174 0.053584 -0.415948
0.166530 0.216853 0.089517
-0.119024 -0.471915 0.157476
-0.182998 0.266345 -0.211597
-0.133788 0.033248 -0.297564
-0.133819 0.011714 -0.264899
0.343773 0.320363 0.062339
-0.484247 -0.050098 0.045012
-0.370477 0.167450 -0.494934
-0.145344 -0.003859 0.010427
0.204974 0.015163 0.282317
0.340431 -0.188207 0.324799
0.222725 0.054697 0.207664
0.186406 -0.013484 -0.389380
-0.093896 0.317754 -0.013353
-0.145669 0.030408 -0.320941
0.179747 0.082471 0.168007
0.355161 0.442618 -0.031426
-0.269044 0.152507 0.303514
0.295390 0.419115 -0.683705
-0.231749 0.298115 -0.202989
0.130338 -0.158382 -0.351923
0.131764 0.256444 0.057423
0.138129 -0.144937 -0.432876
-0.015399 0.279233 -0.782544
0.263469 0.015175 0.264168
-0.228175 -0.002127 0.185719
-0.138638 -0.551453 0.215466
-0.352139 0.390420 0.268195
0.063389 -0.042719 -0.382461
0.077598 0.220110 -0.587203
-0.031301 0.121849 -0.757543
-0.179902 0.184117 0.192635
0.037423 -0.456673 0.142363
-0.537984 0.150351 -0.499689
0.142395 0.028950 0.270184
-0.302917 -0.101623 -0.006968
-0.470277 0.294377 0.364652
0.328364 0.310423 -0.630304
-0.130465 0.023788 -0.399646
0.315467 -0.172561 0.484172
-0.346227 0.050812 0.343044
-0.193128 -0.550963 0.181379
0.114959 -0.302803 0.659576
0.333379 -0.228973 0.332969
-0.270986 0.138825 -0.124439
0.133269 -0.013262 -0.396600
-0.321706 0.000832 0.445757
-0.153459 0.005539 -0.153050
0.234972 -0.354449 0.879070
-0.390339 0.048493 0.409641
-0.203362 0.211992 0.256639
0.216542 0.038159 0.229066
-0.041169 0.181316 -0.162113
-0.076137 -0.435265 0.087160
0.103590 -0.079985 -0.604459
-0.102743 0.265792 -0.719480
-0.190672 0.162827 -0.522805
-0.216387 0.503221 -0.293111
-0.256340 0.153125 -0.144401
0.134667 0.062186 0.204421
0.126468 -0.472101 0.199066
0.131866 -0.330438 0.712472
0.253465 0.306518 0.058234
0.396790 -0.071665 -0.402711
0.180034 -0.240315 0.006816
-0.335284 0.169583 0.362695
-0.114093 0.284978 -0.711258
-0.225999 0.179390 0.283977
0.213555 -0.270682 0.228975
0.058995 0.241922 -0.593025
-0.118024 -0.431750 0.061923
-0.050588 -0.391518 0.062614
0.301413 -0.406814 0.979520
-0.139484 -0.592150 0.256541
0.405805 -0.345204 0.898964
0.313408 0.080688 0.546904
-0.288570 -0.029978 0.432885
-0.192428 0.420801 -0.257122
-0.182145 0.038923 -0.517832
0.036221 0.375267 -0.201060
-0.126018 0.008082 -0.333912
-0.080343 0.468149 -0.274547
0.114697 0.134721 -0.712867
0.207696 -0.086718 0.550681
0.116823 0.040854 0.248286
0.072247 -0.501924 0.207352
-0.316663 0.168041 0.305926
-0.140481 0.028779 -0.526226
0.169582 0.009728 -0.405266
0.057153 0.038453 -0.404466
-0.006908 0.057644 -0.396374
0.217810 -0.259849 0.197153
-0.037981 0.044146 -0.696729
0.094266 0.037249 -0.427802
-0.240443 0.527056 -0.311501
0.169947 -0.244010 -0.095699
-0.164642 0.121184 -0.192253
0.197111 -0.309498 0.708049
0.263766 -0.264010 0.546538
0.107631 0.148751 -0.608194
0.207349 -0.253311 0.545732
0.214196 -0.312816 0.717967
-0.228123 0.479953 -0.284292
0.061797 0.033993 -0.402115
-0.384979 0.042964 0.429028
-0.633097 -0.086606 0.092561
-0.351198 0.134869 0.360711
-0.155926 -0.006919 -0.113118
-0.273721 -0.062329 -0.020506
0.681242 0.011709 0.314454
0.073940 -0.015336 -0.730255
0.168308 -0.276629 0.645359
-0.284288 0.143183 -0.132716
-0.133919 0.008774 -0.338670
0.209743 0.003561 -0.418409
-0.348596 0.088488 -0.090427
0.247966 -0.224101 0.307946
-0.209708 0.038000 -0.514428
0.197669 -0.015826 0.471065
-0.352294 0.295919 0.332214
0.111457 -0.102882 -0.536295
0.056414 0.066927 -0.431396
-0.196152 0.004392 0.098213
0.367904 -0.307358 0.843400
-0.254430 0.062280 -0.066208
-0.232412 -0.043824 -0.034525
0.215047 -0.265914 0.233988
0.714996 0.024866 0.296189
-0.064753 0.149132 -0.709806
0.222076 -0.275749 0.269200
0.374802 -0.360894 0.937530
0.072102 -0.332842 0.666018
-0.099935 0.302766 -0.202656
0.055962 -0.488511 0.189620
-0.383757 0.160055 0.387529
0.220039 -0.334572 0.089506
0.140905 0.242843 0.072379
0.129750 -0.146645 -0.377280
0.378660 -0.329891 0.890828
0.200260 -0.239691 0.539041
0.734530 0.028380 0.297600
-0.273335 -0.079106 -0.017985
0.248401 -0.257148 -0.024357
-0.322684 -0.112083 0.494140
0.046586 -0.316757 -0.009330
0.192641 0.285301 -0.605937
0.133528 -0.183239 0.466162
-0.518436 0.331659 0.318542
0.198217 -0.256198 0.087200
-0.558717 0.056485 0.006634
0.379918 -0.070486 -0.396668
0.022508 0.081679 -0.751027
0.270723 -0.091342 0.567610
0.065879 0.202453 -0.591546
0.371552 -0.316377 0.860927
0.158365 -0.026444 -0.377519
0.211994 0.191512 0.112141
0.370789 -0.301085 0.835317
0.246300 -0.190435 0.522404
0.239367 -0.190717 0.272922
0.338828 -0.337037 0.891781
0.051651 -0.111305 -0.280211
0.278834 -0.222458 0.646730
-0.242407 -0.097478 -0.008334
-0.199341 0.255502 -0.188353
-0.030927 0.194072 -0.595139
-0.028205 0.063942 0.084717
-0.169680 0.004206 0.023938
0.189451 -0.005811 0.314530
-0.361037 0.016582 -0.387820
-0.269590 -0.079057 -0.019579
0.199307 0.006028 0.303259
0.235218 0.261857 0.068469
-0.070748 0.167462 0.066091
-0.033041 0.071862 -0.690096
-0.369617 -0.022359 -0.350257
0.044376 0.094791 0.087793
-0.122138 -0.139002 0.024524
0.435102 -0.088778 0.279118
-0.182649 0.002211 0.267272
0.315518 -0.262770 0.434729
0.545197 -0.177024 0.451105
0.322789 0.141454 0.502742
0.081901 -0.062738 -0.675573
-0.243938 0.218909 -0.138052
0.270633 0.083227 0.517558
0.133589 -0.569910 0.281187
0.080169 -0.068613 -0.350721
0.129095 -0.211364 -0.088943
0.142027 -0.179268 -0.340358
0.380853 0.424415 -0.018384
-0.056742 0.028260 -0.598502
0.050354 0.215013 0.060222
-0.111088 0.136964 0.078623
-0.287870 0.233880 0.266093
-0.131200 -0.014475 -0.160971
-0.215686 0.064796 -0.076677
-0.205669 0.074315 0.237386
0.123465 -0.316889 -0.022814
0.221813 -0.267956 0.282687
0.354823 -0.103802 0.251218
0.070873 0.251086 0.035719
0.081001 -0.026212 -0.385079
-0.238013 0.094243 -0.500546
0.138021 0.102638 -0.542178
0.107609 -0.089489 -0.339462
-0.191216 -0.003519 0.204377
0.219441 -0.257244 -0.039391
0.318274 0.144737 0.485038
-0.115857 0.157479 0.061347
0.114108 -0.091943 -0.339883
-0.140637 -0.576046 0.240392
0.253372 -0.291013 0.676926
0.109579 -0.019156 -0.391997
-0.322954 0.232127 -0.131293
0.296020 0.333387 0.048386
-0.187526 0.005552 0.318743
0.058255 0.282530 0.010538
-0.432411 -0.016495 0.501705
-0.106702 0.196233 0.038764
-0.071795 -0.414880 0.074505
-0.010624 0.052645 0.158650
-0.042758 -0.495912 0.180742
0.140856 -0.104425 -0.334700
0.358976 -0.308196 0.844027
-0.512715 0.306018 0.342073
-0.284279 0.016866 0.262414
0.149523 -0.531122 0.257490
0.297636 -0.236236 0.676358
0.429569 0.307830 0.060279
0.235839 -0.045993 0.526092
0.047871 0.327347 -0.031440
-0.199920 -0.596882 0.214428
0.044581 0.156379 -0.580095
0.481618 -0.200043 0.460693
0.139129 -0.197412 -0.231162
-0.641437 -0.088596 0.094814
0.265460 -0.174680 0.276717
0.156427 -0.264867 -0.058425
-0.003497 -0.430216 0.110053
0.159822 -0.253545 -0.052835
0.246189 -0.271409 0.546847
-0.293657 -0.129064 0.485195
-0.020023 0.165224 0.103433
0.402376 -0.035597 0.606562
-0.554948 -0.010411 0.045337
-0.125353 0.323446 -0.216406
0.205557 0.090697 0.167406
0.075418 0.115400 -0.770379
0.056546 0.221689 0.056785
-0.195052 -0.568889 0.194665
0.135713 -0.192617 -0.253662
-0.304773 -0.108726 0.001449
-0.076163 0.180309 0.057926
-0.163666 0.265161 -0.226353
0.034294 0.268768 0.021474
0.212372 0.352721 -0.634677
-0.069834 0.539776 -0.306665
-0.023748 -0.438413 0.109693
-0.044166 -0.381505 0.048644
-0.475267 -0.091361 0.051225
-0.144181 0.018635 -0.116060
0.027955 -0.460091 0.137798
-0.317859 -0.007621 -0.375241
0.101441 -0.243497 -0.067977
-0.371719 0.264230 0.365349
0.006949 0.192444 0.081789
0.083405 -0.030287 -0.377117
0.229981 0.282741 0.065838
0.249013 0.281003 0.060243
-0.598087 0.024437 0.042947
-0.274171 -0.025794 0.412527
-0.409202 0.119089 -0.462665
-0.335178 -0.111621 0.015394
-0.582605 -0.094284 0.083844
0.160714 -0.218473 -0.115823
0.009812 0.069923 -0.715799
0.409483 -0.122916 -0.383325
-0.057183 0.048767 -0.678065
0.187196 -0.242832 0.071002
0.210976 0.053087 0.206416
0.166506 0.221172 0.091375
0.072134 0.198964 0.074578
0.672593 -0.039680 0.374234
0.059299 -0.364814 0.040019
0.339380 -0.406225 0.986997
0.326380 -0.053446 -0.398875
-0.084243 -0.027033 -0.483080
0.098453 0.045480 0.231290
0.260390 0.251042 -0.586826
-0.104536 0.059874 0.065779
-0.192159 -0.130723 0.031079
-0.069750 0.486041 -0.295235
0.442070 -0.168953 0.348965
0.046853 0.273172 -0.602973
-0.309271 -0.127809 0.025395
0.430665 -0.086997 0.274434
0.302071 0.149605 -0.555687
-0.008966 0.077462 -0.747344
0.214266 -0.087476 0.557598
0.143841 -0.048281 -0.379779
0.159131 -0.206525 -0.219814
0.320998 -0.266064 0.738110
0.166216 -0.208326 -0.187828
0.275882 -0.322161 0.844181
-0.080503 0.437609 -0.251763
0.141396 0.260123 0.062354
-0.330730 0.106842 0.319436
0.424363 -0.100188 -0.401213
0.225502 -0.236501 0.310453
0.227055 -0.088081 -0.358632
0.233693 0.140190 0.143072
0.031392 0.237721 0.042997
-0.293212 0.017103 0.263951
-0.115529 0.052071 -0.446624
0.441973 -0.059285 0.227906
-0.195736 -0.538662 0.164317
0.161275 0.075035 -0.472557
-0.259680 -0.039112 -0.027655
0.082954 -0.075083 -0.327325
0.056999 -0.332238 0.013549
-0.127599 -0.000212 -0.295565
0.092643 -0.052517 -0.607146
-0.200020 0.015325 -0.409094
0.415273 -0.074915 -0.430867
0.376837 0.293168 0.073909
0.706870 0.009633 0.319855
-0.101268 0.038763 0.066560
-0.346187 -0.184153 0.139521
0.317824 -0.233597 0.331745
0.304183 -0.016001 -0.432152
-0.034883 0.142428 0.087988
0.244953 0.158998 -0.549519
-0.076724 0.312462 -0.197449
-0.212805 -0.114473 0.010167
-0.226262 -0.658054 0.227424
0.179124 -0.280616 0.570139
-0.185035 -0.003114 0.288898
-0.121475 0.078166 -0.485305
0.102684 -0.213863 0.473889
-0.187511 0.237602 0.225249
0.032250 0.246981 -0.605971
-0.287774 0.268388 0.247755
0.280493 -0.042645 0.551061
0.017833 -0.460414 0.112801
0.208940 -0.062987 0.517917
0.297397 0.411305 -0.678899
0.085525 -0.397870 0.064397
-0.400849 -0.086319 0.502159
-0.102660 0.019984 -0.551861
-0.151892 0.025023 -0.003143
0.163195 0.038449 -0.430969
-0.019973 0.082812 0.103243
-0.232501 0.155748 0.296067
-0.034210 -0.068264 -0.272890
-0.507388 0.320527 0.333072
-0.428691 0.330203 0.357064
-0.681983 0.011393 0.075321
0.079483 0.268792 0.020714
-0.032313 0.067264 -0.674031
-0.422658 0.377179 0.316247
-0.074364 0.003087 -0.420712
-0.343592 0.036666 0.402391
0.001427 0.297002 0.002745
0.248466 0.102413 0.169400
-0.154761 0.017462 0.047238
-0.513898 0.308735 0.333917
0.211132 -0.260693 0.197988
-0.452854 -0.133749 0.049630
0.260025 -0.205414 0.537461
-0.251698 0.282041 -0.187822
0.280893 0.053102 0.544570
0.337465 -0.241088 0.406513
0.118347 -0.301652 -0.028478
0.290075 0.423780 -0.006584
0.152600 -0.195625 -0.235677
0.280838 0.358746 -0.634677
-0.375110 0.230436 0.378213
-0.414421 0.086336 -0.430409
-0.147063 0.011719 0.029160
-0.023251 0.049092 -0.385521
0.016873 0.067933 -0.419363
0.076196 0.182528 -0.593482
0.049800 -0.162020 -0.242395
0.047072 -0.443528 0.133384
0.211126 -0.218128 0.274108
-0.046173 0.179564 0.073293
0.124013 -0.144876 -0.381551
-0.159763 -0.629505 0.269483
-0.555392 -0.088805 0.074956
-0.568628 0.053992 0.016728
0.251996 0.397020 -0.650526
0.078798 -0.032016 -0.713120
-0.072893 0.541468 -0.316963
0.028856 0.091227 -0.821299
-0.393064 -0.032898 0.010951
-0.093652 0.210879 0.034196
0.691281 -0.012943 0.350550
0.408679 -0.065129 0.213495
-0.155352 0.010915 -0.016089
0.656516 -0.071526 0.403595
-0.062545 0.483514 -0.284395
0.152477 -0.231319 -0.152442
0.018013 0.184046 0.088005
0.239421 -0.274968 0.404029
-0.350184 -0.166723 0.115763
-0.511433 0.290274 0.355376
0.214019 -0.273694 0.220062
0.205006 -0.269234 0.146297
0.223006 -0.262399 0.208749
-0.063704 0.054602 0.085670
0.176030 -0.335268 0.736140
-0.070704 -0.381333 0.034163
-0.441509 -0.060320 0.021038
-0.424478 0.023954 -0.012761
0.333288 0.334819 -0.666977
0.316590 -0.089276 -0.355258
0.205011 0.031984 0.242827
-0.153469 -0.453079 0.052378
0.290352 0.226586 0.111272
0.079800 -0.564852 0.259380
-0.324186 0.184045 0.293065
0.663205 0.005335 0.316945
-0.163354 0.025427 -0.444122
-0.547482 -0.010366 0.043874
-0.357454 0.136434 0.381186
-0.411982 0.036251 -0.020784
0.013169 0.337227 -0.032219
-0.206546 0.235881 -0.155796
-0.111825 -0.476944 0.125040
0.157895 -0.214300 -0.162490
-0.296422 -0.138082 0.484531
-0.075072 0.053923 -0.604989
0.172858 0.197521 0.094900
-0.164313 -0.016178 -0.132559
0.007332 -0.038715 -0.396965
0.309336 -0.085376 0.605047
0.093104 0.219331 -0.588486
-0.202684 0.179639 0.044188
-0.471451 0.034778 -0.026498
-0.284902 0.152143 -0.531373
-0.295021 0.248636 0.257959
-0.090192 0.022433 -0.408822
0.292341 0.363761 0.039920
0.140422 -0.494519 0.215720
-0.148296 0.013102 -0.069532
-0.077951 -0.008740 0.249258
0.172077 -0.232647 -0.118096
0.169239 -0.243569 -0.101146
0.262461 -0.257041 0.328523
-0.025668 -0.525601 0.220589
-0.083200 0.371983 -0.227751
-0.351867 0.108223 -0.465324
-0.120790 0.026185 -0.548715
0.211158 0.112401 0.450431
0.303267 0.273274 0.079806
-0.015610 0.229123 0.055322
0.431478 0.322992 0.047782
0.226108 0.302382 -0.609108
0.164989 -0.239208 -0.038119
0.157116 0.029515 0.269536
-0.114870 0.126252 -0.161099
-0.585705 -0.062928 0.070397
0.198975 -0.257256 0.094968
0.060291 -0.360081 0.037320
0.311632 0.074563 0.550153
-0.018372 0.194061 -0.158112
0.016061 0.322769 -0.016002
0.090425 0.134515 -0.697277
-0.428748 0.092816 -0.070709
-0.296608 -0.096968 -0.024922
0.051365 -0.133612 -0.266789
0.204892 -0.283663 0.678208
-0.053781 -0.450918 0.115647
-0.194120 -0.560625 0.183927
0.221529 0.018024 0.536693
0.349648 -0.360539 0.934855
0.120809 -0.117372 -0.474614
-0.138254 0.004147 -0.232462
0.293011 -0.254445 0.359852
-0.165074 0.053815 -0.512284
-0.183999 0.120625 0.218246
0.089143 -0.055826 -0.704450
0.323503 0.275709 0.080862
0.391261 -0.037658 0.602620
0.102337 -0.185261 -0.243340
-0.329582 0.084136 -0.456842
-0.353720 0.033662 -0.409110
0.204119 -0.087596 0.552596
-0.418609 -0.045602 0.504471
0.006935 0.087753 0.085238
0.340131 0.225431 0.122227
-0.126147 0.000833 -0.231529
0.301349 0.416178 -0.695056
0.121330 -0.174124 -0.258402
0.306651 -0.104338 -0.319759
-0.074442 0.345270 -0.017602
0.467199 -0.101614 0.304710
0.332843 0.043510 0.224006
0.394584 -0.384716 0.964001
0.359413 -0.402591 0.984528
-0.233943 0.003751 0.208243
-0.499010 0.152296 -0.500825
0.220276 0.018525 0.270941
0.075689 0.143485 -0.820169
0.034750 0.076840 -0.442131
-0.237764 -0.560701 0.142014
-0.347233 0.034664 0.396135
-0.061304 0.025094 -0.513204
0.104774 -0.242884 0.509388
-0.439175 0.328008 0.357107
0.037396 -0.110949 -0.282562
-0.103055 0.436600 -0.254451
-0.062894 0.002931 0.243843
-0.227758 -0.556869 0.150849
0.366554 -0.327122 0.889878
-0.213585 0.014555 -0.054287
0.291480 0.108572 0.512561
-0.252602 -0.024990 -0.032577
-0.024172 0.045874 -0.699695
-0.172285 -0.139190 0.039501
0.275045 0.169520 0.426925
0.307790 -0.324605 0.852340
0.400109 0.335221 0.050839
-0.403423 0.306021 0.368619
-0.178856 0.176435 -0.537985
-0.316084 0.072929 -0.082749
0.112916 -0.015213 -0.395648
0.285303 0.152559 -0.544918
-0.673954 0.026314 0.071044
0.233727 0.010642 0.286999
-0.405917 0.048620 0.441038
-0.104440 -0.571017 0.263918
0.274244 0.291839 0.063867
-0.006495 0.201983 -0.166185
-0.389170 0.411672 0.236203
0.207364 -0.231742 0.289485
0.155353 -0.256934 0.013068
-0.630862 -0.007985 0.064441
0.012125 -0.063494 -0.374888
0.360369 -0.041922 0.589686
0.100228 0.100780 0.142263
-0.136714 0.017103 -0.030283
0.203495 0.080608 0.478096
-0.135749 -0.393401 -0.000791
-0.108107 0.101221 -0.487179
-0.188749 -0.003121 0.119997
-0.304133 0.144779 -0.505538
0.129222 -0.150461 -0.271163
-0.192356 0.222723 0.237031
0.014983 0.040578 -0.758973
0.067833 0.052773 -0.799595
0.081879 -0.006442 -0.734459
0.304508 0.406751 0.013004
-0.156567 -0.151136 0.053902
0.108470 0.095683 -0.520799
0.135161 0.072016 0.187498
0.195726 -0.173322 0.500067
-0.220264 -0.157468 0.090918
0.140710 0.107599 0.125285
0.486252 -0.101978 0.316561
0.254146 0.332844 -0.620420
0.079150 0.006647 -0.768649
0.304318 0.273018 -0.589097
0.136233 -0.166700 -0.321696
0.077333 0.145490 -0.814019
-0.007339 -0.040652 -0.325018
-0.256500 -0.637093 0.186778
0.372633 0.394807 0.018436
-0.265336 0.025894 0.244946
0.223391 -0.268752 0.299744
0.382588 -0.036958 0.597592
-0.303922 0.041512 -0.049600
0.155491 -0.215787 -0.114084
-0.354440 -0.066844 0.500978
0.251680 0.087567 0.180504
-0.100771 0.183926 0.047125
-0.058130 0.072997 -0.396958
-0.336891 0.056490 0.300666
-0.323459 0.246890 0.323663
-0.399761 -0.107667 0.029518
0.099762 0.285363 0.007135
-0.280080 -0.158878 0.092033
0.039841 0.100039 -0.858370
-0.243309 -0.215302 0.190997
0.271630 0.173653 -0.563248
0.120670 -0.151457 -0.434534
-0.128998 -0.472094 0.109624
0.677447 -0.031828 0.368042
0.181936 0.036333 0.252606
-0.063244 -0.469904 0.136407
0.283486 -0.197420 0.517770
0.484021 -0.084019 0.284441
0.317014 -0.186932 0.622293
-0.156461 0.155248 -0.231273
-0.064379 -0.389539 0.051493
0.559524 -0.183586 0.459684
0.321106 0.321138 -0.631628
-0.269860 0.226595 0.271577
-0.094779 0.029105 0.060112
-0.551133 0.014314 0.033498
-0.157017 0.186171 -0.222101
-0.074536 -0.479323 0.157701
-0.330833 -0.114988 0.026956
-0.250837 -0.036748 0.252139
-0.069613 0.007281 -0.432554
0.243718 -0.187206 0.265555
0.066781 0.124959 -0.608974
-0.086626 -0.450987 0.100125
-0.361402 0.185223 -0.512098
-0.071891 0.016162 -0.623592
-0.137881 0.451598 -0.270490
-0.014582 0.044019 -0.380617
0.015604 -0.082626 -0.295678
-0.178320 0.576736 -0.315264
-0.286409 0.103656 -0.486120
0.118912 0.200576 -0.584113
0.108781 0.147370 -0.616540
0.091233 0.147274 -0.774030
0.110677 0.141024 -0.597219
0.105457 0.078726 -0.503530
-0.097739 -0.492211 0.176465
0.148475 0.044719 0.238285
-0.209457 -0.026727 -0.047444
0.040751 0.258019 -0.600053
0.391290 -0.352553 0.915416
0.308486 -0.060029 0.573335
-0.186126 -0.006162 0.129813
-0.295820 0.284782 -0.170087
0.623374 -0.036122 0.347595
0.021274 0.095853 -0.624004
0.296682 0.301370 -0.612057
-0.035587 0.046005 -0.650315
-0.231999 0.235544 0.256350
0.156896 -0.193976 -0.227168
-0.188330 0.012123 0.095967
0.332564 -0.166651 0.300671
0.016881 0.090169 -0.643988
-0.083737 -0.007459 -0.300202
0.323565 -0.191469 0.324026
0.152253 -0.194974 -0.123279
-0.464386 0.345312 0.328541
0.229589 0.252886 -0.593172
0.242127 -0.286646 0.632827
-0.343979 0.042919 -0.425135
-0.124253 -0.537737 0.214527
-0.385673 0.072774 -0.051079
0.325586 -0.154507 0.279466
0.297143 -0.093075 0.597365
-0.065282 0.522531 -0.297780
-0.290445 0.043684 -0.458922
-0.131468 0.034487 -0.408938
0.183798 -0.236816 -0.071212
-0.188563 0.242370 -0.179770
0.098557 0.153617 -0.739964
-0.229760 -0.161727 0.095588
-0.254484 -0.080663 0.451640
-0.206853 -0.001701 0.127063
0.381609 0.365756 0.037496
-0.679723 -0.014232 0.080547
0.005490 -0.338328 -0.010995
0.159709 -0.330964 0.720716
-0.333454 0.162235 0.361362
-0.141144 -0.502327 0.166798
-0.585056 -0.027448 0.056339
0.387955 -0.097338 -0.378157
-0.333966 -0.037169 0.479754
-0.485476 0.319818 0.338373
-0.173550 -0.149257 0.055280
0.363497 -0.211134 0.340259
0.107612 -0.088033 -0.583003
0.025315 0.092144 -0.815258
0.063132 0.134858 -0.726223
0.011903 -0.040371 -0.351933
-0.582237 -0.145693 0.099501
0.254671 0.395353 -0.649933
-0.003363 0.084011 -0.719964
-0.231019 0.070773 0.236846
0.248953 -0.070293 -0.358558
-0.151182 -0.012278 -0.205862
-0.474365 0.144303 -0.481152
-0.000949 0.196257 -0.603741
-0.276385 0.115768 -0.497035
0.099060 -0.058801 -0.652356
-0.192616 0.192808 -0.562872
-0.123918 0.186946 0.037984
-0.683345 0.021476 0.067907
0.151271 -0.211289 -0.171668
0.280785 -0.139297 0.221389
0.013919 0.090920 -0.436796
0.391254 -0.241380 0.416005
-0.356205 -0.160895 0.113262
0.237315 -0.256261 0.294260
0.328416 -0.196844 0.329900
0.664221 -0.025119 0.354651
0.109516 -0.563630 0.263997
0.024095 0.011428 -0.380304
-0.190644 0.145439 -0.188410
-0.259864 -0.207114 0.173877
-0.164543 -0.583901 0.228919
0.091275 0.128520 -0.796335
0.250483 0.038554 0.233964
-0.150135 0.011611 -0.074277
0.584169 -0.172138 0.443401
-0.166096 -0.527741 0.174418
0.276392 0.282046 0.070696
0.215679 -0.211716 0.270391
0.038347 0.193708 0.076543
-0.408303 0.025684 0.474584
-0.263446 0.216087 -0.135375
0.056907 0.146705 -0.826913
-0.127196 0.396020 -0.243823
0.009422 0.053767 -0.706860
0.145423 -0.028120 0.443473
-0.207478 0.206184 -0.570537
-0.036710 -0.400761 0.078201
0.169880 0.185730 -0.608535
0.700667 -0.039812 0.378513
-0.090820 0.020416 -0.512632
0.033244 0.084051 -0.632084
-0.092723 -0.476494 0.145927
0.255406 -0.344930 0.872286
-0.437248 -0.072830 0.499731
-0.262089 -0.093311 0.462226
-0.177138 0.018237 -0.423931
-0.326709 0.199971 0.344866
-0.140252 0.012266 -0.318741
0.427108 -0.045422 0.632590
0.010369 0.089623 -0.724282
-0.390406 0.391454 0.288209
-0.039627 0.112237 -0.694056
0.225286 -0.354229 0.871928
0.345360 -0.027826 0.567484
-0.086647 -0.476428 0.126016
0.340620 -0.324222 0.875403
-0.164752 0.357094 -0.251167
0.194578 -0.200951 0.525775
-0.256950 -0.195461 0.150896
-0.118774 -0.547824 0.230913
0.200627 0.018598 0.277426
-0.303612 0.323029 -0.193953
0.105984 0.024370 -0.418594
-0.370705 0.011371 0.459430
0.156689 0.217722 0.087843
-0.118403 0.209002 0.015352
0.063444 0.006309 -0.784290
-0.023359 0.103784 0.205066
-0.045247 0.293100 -0.164448
-0.019403 0.278426 -0.150077
-0.148388 0.021159 0.024930
0.083734 -0.057287 -0.639105
-0.133081 0.580421 -0.319373
0.154016 -0.290510 -0.034832
-0.238047 -0.010016 -0.038933
-0.054948 -0.039479 -0.274030
0.303827 0.142004 0.484836
0.107966 0.270812 0.026370
0.145229 -0.179922 -0.327956
0.099081 0.251027 -0.612973
0.146806 -0.147630 -0.496920
-0.323623 0.060457 0.305117
0.232467 0.101623 0.480448
-0.148531 0.033704 -0.401577
-0.141644 0.029631 -0.411483
-0.149486 0.017615 -0.439234
-0.108224 0.159897 -0.195731
-0.352252 0.249270 0.353130
-0.208017 0.259007 -0.186626
-0.225395 0.069395 0.237309
-0.258598 0.241764 0.258865
0.241110 -0.067098 -0.373381
-0.207011 -0.102146 -0.007731
-0.005110 0.086559 -0.731512
-0.521896 -0.087684 0.056231
-0.079202 0.129481 0.081683
-0.226389 -0.196540 0.150500
0.257980 -0.269352 0.676009
-0.211770 0.137167 0.285912
0.288507 -0.156542 0.256904
-0.078736 -0.007929 0.249876
-0.009606 0.048496 0.159744
-0.185144 -0.009169 0.165147
-0.394343 0.098302 -0.062013
0.301900 0.265097 -0.589895
-0.167237 0.047606 -0.506271
0.092621 -0.073534 -0.680868
-0.623030 0.055969 0.032309
0.078462 -0.448463 0.160416
0.381835 -0.077214 -0.391570
0.079226 0.152055 0.104327
-0.638790 -0.140750 0.108054
0.150353 0.284017 0.059833
0.537754 -0.188608 0.462949
0.091178 -0.386214 0.050198
0.143533 0.038862 0.250587
-0.216497 0.314405 -0.216309
-0.121214 0.171411 -0.213828
0.314887 -0.224311 0.680433
0.564978 -0.024025 0.283510
-0.357497 -0.124945 0.039101
0.115068 -0.294526 0.639569
0.383770 -0.173052 0.651530
-0.206595 0.244162 0.234454
0.128235 -0.130688 -0.442272
-0.197421 0.005403 0.314708
-0.148669 0.114444 -0.507599
0.077912 -0.026485 -0.723697
-0.253266 0.224498 -0.132732
0.543230 -0.143868 0.387940
0.056489 0.045811 -0.412310
0.224144 -0.262574 0.276996
-0.398364 0.406002 0.269060
0.003653 0.088384 0.091360
-0.364805 -0.004056 -0.010194
-0.071928 0.041455 -0.626885
-0.340879 0.020673 -0.030666
0.077780 0.231824 -0.594027
-0.647043 -0.051699 0.087899
0.589557 -0.002686 0.266063
0.075621 -0.002256 -0.763772
0.094082 0.108991 -0.543977
-0.124101 0.018411 -0.384828
0.065654 -0.108774 -0.291199
-0.127488 -0.555158 0.229104
-0.115462 -0.398473 0.021496
-0.036857 0.345790 -0.025636
-0.233034 0.210724 0.280161
-0.607471 -0.033110 0.062261
-0.172108 0.199795 0.011990
-0.290595 0.095255 -0.078683
-0.390013 0.122504 -0.466893
0.309046 0.077923 0.200228
-0.036847 0.148551 -0.744163
-0.317579 0.050089 -0.462392
0.296099 -0.364865 0.932854
-0.341453 0.034721 0.385392
-0.421173 0.418780 0.254245
-0.589476 -0.079100 0.079890
-0.114142 0.251437 -0.715496
0.385011 -0.344256 0.912902
0.381250 0.303198 0.068221
-0.423720 0.386726 0.299639
-0.202793 -0.561833 0.178841
-0.403220 -0.087699 0.030080
-0.191768 0.160178 0.205156
-0.312249 -0.140140 0.052679
-0.702704 0.024039 0.047023
-0.200007 0.128502 -0.162905
0.079194 0.030479 -0.795448
-0.449603 0.281189 0.383922
0.047084 -0.049367 -0.379940
0.199002 -0.228540 0.523871
0.340161 0.413222 0.007381
0.133356 -0.044483 -0.378686
0.071746 0.108327 -0.843212
0.081004 -0.359573 0.716149
0.387165 -0.095490 0.265951
-0.452864 0.001782 0.004776
0.035197 -0.447322 0.096640
-0.175866 -0.540947 0.185400
0.137711 -0.157942 -0.321489
0.405315 -0.184014 0.340022
-0.328363 0.253886 0.327969
0.035723 -0.038937 -0.371990
-0.434175 -0.083581 0.502219
0.249206 -0.045752 -0.381795
0.155527 -0.257396 -0.105489
-0.188358 0.150287 -0.515713
-0.097255 0.256832 -0.160223
-0.233668 0.416958 -0.247854
-0.206926 0.014614 0.157698
0.543563 -0.199016 0.480898
0.326690 0.043652 0.237515
-0.042360 0.070477 0.094762
0.252108 -0.078203 0.549923
-0.108314 -0.403587 0.036596
-0.299880 0.001919 -0.391585
-0.167000 0.004569 0.012122
-0.098778 -0.483821 0.170557
0.199115 0.020184 -0.424797
0.312629 -0.160456 0.277374
0.371450 -0.225357 0.384351
-0.308244 0.040715 -0.486969
-0.193498 0.081602 -0.115673
0.022449 0.012255 -0.380564
-0.192405 0.003346 0.283623
-0.039768 0.072737 0.226222
0.252070 -0.005189 0.312046
0.109199 0.212791 0.079245
0.020874 0.333483 -0.026165
0.474244 -0.078905 0.278573
-0.101911 0.146959 -0.514349
-0.349236 0.359672 0.288851
-0.092814 0.034298 -0.518982
-0.158503 0.001760 -0.163619
0.323491 -0.015067 0.553285
0.204240 -0.263033 0.176091
0.389121 -0.072608 -0.399036
0.187258 -0.246727 0.028284
0.268430 0.005162 0.287047
0.208952 0.350610 -0.637392
0.081079 0.128867 0.101648
-0.010208 0.167656 -0.573056
-0.142653 -0.567229 0.229810
-0.183888 -0.000711 0.175128
0.074942 0.278026 -0.618533
0.596186 -0.088921 0.390712
0.235045 -0.288677 0.663053
0.313482 0.154263 0.469150
0.363685 -0.180741 0.652399
0.295473 0.379039 -0.653592
0.115884 0.076426 0.186421
0.431638 -0.147522 0.346272
-0.090386 0.028478 -0.400589
0.264401 0.123076 -0.529917
0.329790 -0.168756 0.618617
-0.035441 0.220823 -0.761751
-0.432081 0.202492 0.378638
0.403500 -0.356282 0.921007
0.097201 0.096018 -0.531681
0.096903 0.120164 -0.747083
-0.452943 0.137456 -0.472153
-0.063999 0.031583 -0.492780
0.203479 0.327749 -0.624052
0.399547 -0.337028 0.882234
0.155744 0.339845 0.016161
0.185373 -0.240323 0.096256
-0.269288 0.142503 -0.128369
-0.096905 0.355309 -0.219706
0.039768 0.286712 0.007983
-0.088870 0.240058 -0.728480
0.061438 -0.357908 0.697489
0.122650 -0.209382 0.488242
-0.147013 0.013716 -0.205354
-0.066764 -0.402886 0.067070
-0.120283 0.136566 -0.176011
-0.266192 -0.085548 0.459287
-0.095689 0.124708 -0.146337
-0.025709 0.242511 0.047285
0.020430 0.105688 -0.775082
-0.097206 -0.526171 0.212137
0.104247 -0.078959 -0.664505
-0.129580 0.022249 -0.295856
0.238906 -0.247552 0.304943
-0.227738 -0.157267 0.093240
-0.153044 0.259611 -0.206287
-0.299987 0.082246 -0.475275
-0.353674 0.117094 0.333199
-0.371206 -0.006514 -0.366855
-0.215765 0.252237 -0.171273
0.339025 -0.357915 0.920501
0.093567 -0.085669 -0.606674
0.329520 -0.242986 0.717726
-0.355711 0.241617 0.352843
-0.108727 0.564155 -0.315721
-0.013807 0.087433 0.095676
-0.421991 0.071451 -0.409152
0.131780 -0.317097 0.688207
0.017547 0.340886 -0.035515
-0.697690 -0.095792 0.106277
-0.364940 0.129671 0.316024
0.252804 -0.068725 -0.373697
0.163303 -0.214752 0.502842
0.067479 -0.270669 -0.047891
0.149004 0.017225 0.286626
-0.171777 0.253703 -0.210104
0.210637 -0.273448 0.176546
-0.494867 -0.003866 0.019526
0.391661 -0.033785 -0.468292
-0.266898 0.079426 -0.071477
0.061690 0.296816 -0.624025
-0.248624 -0.556580 0.132559
0.363152 -0.192271 0.671003
0.117319 -0.281497 -0.034021
0.200365 0.310348 -0.619003
0.007649 0.207640 0.068582
-0.250406 0.104834 -0.105539
-0.146417 0.091680 -0.265382
-0.076253 0.538017 -0.311572
0.220372 -0.212434 0.525442
-0.628978 -0.055664 0.083355
-0.611333 -0.035684 0.065770
-0.110176 -0.536164 0.216586
0.125077 -0.101860 -0.320118
-0.192045 0.159994 -0.198890
-0.207483 0.188735 -0.546140
-0.221090 0.305843 -0.222521
0.237289 -0.256188 0.389944
-0.086306 -0.026516 -0.259352
0.369206 0.425205 -0.008217
-0.188502 0.190529 -0.559760
-0.270071 0.170781 0.297047
0.095292 0.157359 -0.692276
0.040615 0.199344 -0.623936
0.310377 -0.244561 0.412617
0.252402 0.252077 0.083737
0.147839 -0.281472 0.642413
0.064892 0.150813 -0.808927
0.145788 -0.210246 -0.062784
-0.309843 0.048238 -0.464685
-0.121034 0.105922 -0.497349
0.008423 -0.036444 -0.381730
0.324548 -0.126895 -0.325223
0.617999 -0.029189 0.335783
0.149742 0.249242 0.077983
-0.007667 0.077113 -0.647152
-0.375880 0.288326 -0.151516
0.231149 -0.276301 0.313814
0.282099 0.370716 0.036271
0.170581 -0.286265 -0.012390
-0.222545 -0.114292 0.013154
0.352435 0.256319 0.097033
0.292952 0.168859 0.439535
0.073765 -0.279065 -0.032904
-0.055029 -0.004621 -0.410722
-0.179557 0.004160 0.337434
-0.334939 0.330897 -0.200297
-0.270309 0.110250 -0.504655
0.385485 -0.324969 0.873062
0.635149 0.028500 0.249293
0.451494 -0.064207 0.227887
0.082748 -0.061149 -0.611443
0.330897 -0.054489 0.579881
0.700434 -0.037019 0.376783
-0.338366 -0.059962 0.490846
0.070605 -0.115489 -0.286487
-0.188690 -0.117621 0.005724
0.079411 0.026012 -0.792897
0.179811 -0.252691 -0.026991
0.175138 -0.248656 0.028919
0.035778 -0.426752 0.086458
-0.163785 0.145882 -0.514810
-0.298700 -0.115141 0.486764
0.352693 -0.227479 0.382375
0.181172 -0.345071 0.083446
-0.159693 0.560996 -0.310981
0.530098 -0.184963 0.460100
-0.145478 0.007689 -0.410304
0.424475 -0.100715 0.284313
0.264764 -0.304247 0.760234
0.334453 -0.366849 0.944143
0.247750 0.270284 0.070200
-0.077890 -0.027103 -0.266872
0.232277 -0.272471 0.376378
0.076354 0.297647 -0.651076
-0.040649 0.039337 -0.629374
0.380945 -0.084838 0.240041
-0.120004 -0.009241 -0.456450
0.538311 -0.102940 0.356743
-0.229897 0.084862 -0.105954
0.290445 -0.077624 0.575492
0.002611 -0.036088 -0.393319
0.366668 -0.058028 0.615167
-0.424337 0.394189 0.288348
-0.228702 0.564692 -0.333217
0.293920 -0.395823 0.951442
-0.128486 -0.000235 -0.437679
-0.001075 -0.043596 -0.327269
-0.317300 0.016236 0.372087
0.090093 0.172157 -0.603735
0.331266 -0.073901 -0.383592
-0.046640 0.038587 -0.640482
-0.260287 0.117696 0.233286
0.164631 0.189904 -0.610817
0.314620 -0.021279 -0.429839
0.081836 0.069213 -0.461029
0.025351 -0.275772 -0.086817
0.378789 -0.412646 0.990981
0.236791 0.045656 0.528662
0.110371 -0.287839 -0.032583
0.235561 -0.041728 0.521190
-0.085354 0.523368 -0.298378
-0.099161 0.507231 -0.290063
-0.459306 0.286818 0.378687
0.404452 -0.025079 0.594270
0.345676 -0.258759 0.438129
0.279598 0.397571 0.017658
0.118430 -0.125465 -0.433939
-0.225458 0.095897 -0.500749
-0.230479 0.057760 0.241559
0.165884 -0.272707 0.570974
-0.207535 0.094005 0.229225
-0.125260 0.159464 0.059282
0.366670 -0.021211 0.566419
-0.201765 -0.009650 0.109740
0.027748 -0.370753 0.037242
0.319028 -0.407714 0.982160
0.231630 0.004388 0.294479
-0.210375 0.036539 -0.466861
0.281259 0.148579 -0.540070
-0.354343 -0.126030 0.030019
0.158467 -0.279203 -0.037277
0.302012 -0.218426 0.666838
0.226850 -0.258407 0.462203
0.276896 0.160820 0.442955
-0.141779 0.005394 -0.246404
-0.194135 0.025468 -0.427317
0.308673 0.375029 -0.656646
0.293743 -0.208073 0.320934
0.030292 0.090610 -0.756440
0.052397 0.211655 0.062578
0.164241 0.116581 0.127103
-0.205499 0.142756 -0.172498
0.010546 0.217222 0.059738
0.408803 -0.101355 -0.389859
-0.649358 -0.025757 0.081219
0.229374 -0.262333 0.536334
-0.382198 0.284126 -0.157619
0.194015 0.387239 -0.002377
0.266803 0.376143 -0.639619
0.304794 0.053893 0.224974
0.109122 0.189620 -0.583808
0.044112 -0.548752 0.243363
0.144964 0.283064 0.055310
-0.085966 0.194440 -0.714084
0.092720 0.128596 -0.700727
0.265183 -0.368625 0.921660
0.141235 -0.289282 0.656110
0.202517 0.318177 0.044291
-0.348594 0.041644 0.382823
-0.073299 0.481379 -0.295172
0.193711 -0.259615 0.055941
-0.222233 -0.517925 0.122080
0.024821 0.322557 -0.160835
0.182306 -0.252138 0.079737
-0.221438 -0.164341 0.100736
0.387678 0.402011 0.007088
-0.482831 -0.089532 0.053855
0.279280 0.257185 0.086604
0.066216 0.193428 0.076400
0.342352 0.266996 0.088039
0.266903 0.344141 0.045803
-0.139558 -0.578620 0.243880
-0.084482 0.126214 -0.498466
0.374340 -0.210429 0.700728
-0.082078 0.191075 -0.720367
-0.115335 0.586177 -0.337649
0.128029 0.152716 -0.612560
-0.135169 0.049624 -0.278123
-0.173661 0.207835 0.249467
-0.050123 0.023283 -0.507913
-0.137962 0.022013 -0.377371
0.031947 0.119669 -0.793533
-0.081518 0.174995 -0.705002
0.288461 0.395350 -0.658729
-0.106484 0.019362 -0.344723
0.327260 0.052430 0.227833
-0.281469 0.253141 0.254122
0.495323 -0.095526 0.311521
0.115109 -0.129765 -0.525986
0.118175 0.045703 -0.435440
-0.070365 -0.003321 -0.310193
-0.003640 0.286117 -0.151010
0.081286 -0.015567 -0.767141
0.292306 -0.170948 0.288814
-0.327320 -0.023937 -0.361068
0.181182 -0.262910 0.091776
-0.243166 0.002456 -0.043816
-0.201902 -0.547927 0.171741
-0.056096 -0.007211 -0.415231
-0.127752 -0.004133 -0.203816
0.303146 -0.135321 0.225546
-0.208176 0.042134 -0.069816
0.123725 -0.155928 -0.405192
0.355997 -0.217890 0.337434
-0.058275 -0.493240 0.182946
-0.384627 0.090674 -0.063504
0.220497 0.113812 0.457791
-0.358894 0.020466 -0.023909
0.104848 -0.244722 -0.063635
-0.242316 0.041127 -0.491495
0.169514 0.236902 0.087406
-0.123317 0.263320 -0.184193
-0.150386 0.123815 -0.527342
-0.212508 -0.575750 0.186328
0.111380 0.099273 -0.530690
-0.436763 0.034540 -0.018758
0.063286 -0.419219 0.081794
-0.024967 0.197435 -0.169881
0.092373 -0.331649 0.689370
-0.193398 0.005008 0.087021
0.179214 0.019994 0.285660
-0.555796 -0.023691 0.049846
-0.402307 0.157838 -0.502857
-0.357489 -0.067279 0.015929
-0.649684 0.032774 0.056512
-0.101563 0.030974 -0.562157
-0.148512 0.546886 -0.306068
-0.350902 -0.089567 0.500936
0.090977 0.125844 0.093115
-0.147478 0.577343 -0.317245
0.425588 -0.082996 0.260023
0.097919 0.148713 -0.606950
-0.504260 -0.129061 0.075033
-0.049111 0.037369 -0.636746
0.157678 -0.037249 0.464578
-0.429518 0.152563 -0.500632
-0.021360 0.229900 -0.771933
0.299862 0.309980 -0.615908
-0.069688 0.134855 -0.672826
0.193669 -0.317072 0.063444
0.119993 -0.382678 0.069067
-0.031123 -0.514916 0.202495
0.330334 -0.151423 0.455504
0.296658 0.079055 0.537529
-0.179253 0.052196 -0.513225
0.116583 0.104702 0.130405
-0.311622 0.242299 0.312868
-0.240324 -0.193627 0.144859
0.048372 -0.175794 -0.239548
0.022357 0.065253 -0.777674
0.366381 -0.342134 0.914869
-0.368696 -0.138746 0.497273
0.218665 -0.323697 0.082980
-0.320047 0.050015 -0.477751
-0.265387 -0.623223 0.171930
-0.084903 0.094416 0.117769
0.070072 0.140482 -0.740159
0.228119 0.136743 0.433320
0.196069 0.121370 0.140681
-0.251880 -0.026822 0.258750
-0.160193 -0.025088 -0.136331
0.299063 -0.146421 0.488810
0.142929 -0.288853 -0.052857
0.351743 -0.021679 0.563519
0.205365 -0.305377 0.056868
-0.283416 -0.106499 0.009259
-0.255544 -0.047935 0.429075
0.057717 -0.426752 0.077584
-0.231017 0.099084 -0.105619
0.127388 -0.554140 0.267046
-0.342348 0.127232 0.315141
-0.165507 0.197563 -0.227327
0.137818 -0.291990 -0.039952
-0.249889 -0.036901 -0.028228
0.252523 -0.163577 0.530337
0.646121 0.003761 0.306011
0.121037 0.150651 -0.607515
-0.138649 -0.460732 0.069487
0.220751 -0.298877 0.701251
-0.088962 -0.530250 0.229095
-0.026941 0.076962 -0.686655
0.322359 -0.235503 0.696903
0.217856 0.200271 -0.591924
0.301638 0.074362 0.191441
0.277346 0.077215 0.526387
0.224904 0.330964 -0.621412
0.351276 -0.100322 0.244862
-0.156385 0.050776 -0.520663
0.406398 -0.180671 0.667886
0.089189 0.053561 -0.441835
0.088202 -0.402520 0.064033
0.077428 0.015063 -0.775083
-0.066537 -0.472991 0.129949
0.083825 -0.034310 -0.700997
0.275237 -0.300416 0.760238
-0.113188 0.296211 -0.720169
-0.331088 -0.192506 0.161642
-0.345963 0.073554 0.324691
-0.228337 0.327658 -0.211040
0.237449 -0.262318 0.321956
0.335978 -0.347441 0.909610
0.257941 0.000649 0.300356
-0.136265 0.011577 -0.456561
0.265647 -0.057253 -0.381913
-0.223760 0.013404 0.179333
-0.441021 0.079140 -0.410043
-0.453731 0.353747 0.321503
-0.272462 -0.206861 0.183406
-0.226558 0.165746 0.211161
0.313317 0.123313 0.505260
-0.099342 0.039535 -0.546623
-0.116782 0.445344 -0.263030
