0.261436 0.360470 0.086679
0.376528 0.111360 0.296265
-0.000912 -0.158293 -0.012644
-0.284518 -0.114661 0.006549
-0.363621 0.316953 -0.163131
0.305827 0.237945 0.074523
-0.003089 -0.392314 0.250182
0.272456 -0.555218 0.118090
-0.236897 0.166565 -0.340026
0.454309 0.234616 0.221386
0.034969 -0.403039 0.297606
-0.111446 -0.125722 -0.028118
0.064898 -0.443571 0.046815
-0.085633 0.567640 -0.173366
-0.280289 0.179887 0.086465
-0.043435 0.151170 0.274979
-0.087451 -0.083034 -0.085166
0.011269 0.690856 -0.094906
0.241865 -0.014120 0.069907
0.057174 -0.260643 0.291772
-0.113132 0.290341 -0.136331
0.264796 0.292657 0.104894
0.137914 -0.667643 -0.171490
0.234627 0.383692 0.268689
-0.229414 0.746191 -0.208964
0.099565 0.412020 -0.003362
-0.089876 0.804086 -0.052189
0.293858 -0.848866 -0.283501
-0.278246 -0.237685 0.058897
-0.073041 -0.017110 0.209382
-0.028192 0.089994 0.234162
-0.528559 0.189814 0.017618
-0.054864 -0.449083 0.088650
-0.057435 0.149943 0.173996
0.152480 -0.680152 -0.065265
-0.115588 0.228809 -0.192217
0.550144 0.251705 -0.042010
0.263865 -0.533053 -0.248935
-0.018537 -0.485731 0.105582
0.117257 0.605595 -0.004732
0.102066 0.311974 -0.336143
0.169771 -0.715577 -0.228403
0.135579 -0.371461 0.092949
-0.300200 -0.145864 -0.208930
0.070240 0.717936 -0.037262
0.037061 0.025778 0.146514
-0.034249 0.040109 -0.189206
0.224935 -0.253950 0.199739
-0.039020 0.103763 0.235802
-0.439747 -0.104568 -0.170425
-0.409718 -0.326761 -0.056509
-0.322132 -0.389558 0.143905
-0.393175 0.031270 0.184878
0.250058 -0.764109 0.030284
0.052632 -0.220040 0.237461
-0.443298 0.193205 -0.010859
-0.323460 -0.233090 -0.129764
-0.244020 -0.170243 0.043688
-0.289106 -0.060434 -0.137262
0.053214 0.569536 -0.124791
0.217176 -0.295527 0.104795
0.148169 -0.078276 0.030306
0.251103 -0.552910 0.086287
-0.387397 0.174499 0.006232
-0.516537 0.468937 -0.105092
0.107947 -0.555925 0.024199
0.108268 0.384747 -0.048935
-0.446155 0.563300 -0.062417
-0.584940 0.294995 -0.106313
-0.097389 0.038553 -0.250854
0.321651 0.384349 0.257922
-0.374272 -0.266863 -0.104684
0.101234 0.024826 -0.215331
-0.228176 -0.196521 -0.131744
0.277882 0.243216 0.063361
-0.007532 0.362775 -0.070389
-0.072533 0.582589 -0.189897
0.405214 0.200287 0.138365
-0.059809 0.077340 0.220921
-0.011461 -0.335120 0.263877
0.085326 -0.327742 0.198418
0.209561 -0.604468 -0.237309
-0.272243 0.276533 -0.047946
0.358935 -0.976317 -0.253036
0.146617 -0.624470 0.060584
-0.227563 0.151278 -0.341469
0.005066 -0.186735 0.004413
-0.163054 0.718859 -0.208270
0.259829 -0.662794 -0.230323
0.089919 0.303977 -0.327788
-0.252690 0.274724 -0.336693
-0.332913 0.263605 -0.049233
0.126948 -0.639209 -0.081883
0.298161 -0.649681 -0.230137
0.201057 -0.187521 0.134759
-0.059152 -0.373823 0.196356
0.334573 0.085847 0.122418
-0.463526 -0.034180 -0.211458
-0.021835 0.085061 -0.206514
0.147101 -0.309125 0.012376
-0.006047 0.742259 -0.049338
-0.321724 0.256767 0.166643
0.178061 0.061065 0.136954
-0.027586 -0.092278 -0.272813
0.012200 -0.369662 0.218760
-0.025520 0.211832 0.275746
0.134374 0.330095 0.166085
-0.275057 -0.344992 0.265798
0.145781 -0.553363 -0.144586
-0.020322 -0.084241 -0.329792
-0.262675 -0.013045 0.061994
-0.317962 -0.363831 0.140657
0.207496 -0.468968 0.039261
-0.016279 0.114103 -0.220946
-0.233611 0.345015 -0.344329
-0.019187 -0.091119 -0.033370
-0.380634 0.219076 0.080490
0.334207 0.050064 0.338586
-0.439840 -0.199112 -0.148622
0.255648 0.236792 -0.043840
0.318173 -0.824977 -0.312208
-0.033085 -0.352807 0.199066
-0.433155 -0.383083 0.122155
-0.016229 0.339501 0.009107
0.148252 0.229314 -0.276992
0.066809 -0.208396 0.304312
0.163766 -0.283007 0.133364
-0.128430 -0.277027 0.310828
0.019825 -0.325500 0.277316
-0.034357 0.679057 -0.153736
0.228167 0.357250 0.187627
0.578458 0.174186 -0.049725
-0.263883 -0.075829 0.148129
0.337349 0.358168 0.202674
0.026552 -0.449415 0.031387
0.347986 -0.921732 -0.285062
0.060651 0.116107 -0.345449
0.132957 -0.509068 0.091818
-0.012282 0.566626 -0.155381
-0.348040 -0.205704 0.127730
0.372337 0.083773 0.262865
-0.192844 -0.188681 0.077142
-0.365008 -0.037406 -0.075230
0.364917 0.336703 0.213538
0.522089 0.190148 -0.086813
-0.109117 0.116142 -0.269166
0.055966 0.004935 0.147453
-0.552697 0.485090 -0.124379
-0.360579 0.315596 -0.012532
-0.249065 0.599705 -0.140142
0.059950 -0.206764 0.252207
0.389858 -0.886052 -0.390394
-0.266800 0.061113 -0.091922
0.615327 0.256358 -0.041817
0.121278 -0.513210 -0.100598
-0.011693 -0.291738 0.080920
0.081189 -0.505326 0.147224
0.106665 -0.451138 0.120189
0.107687 0.250164 -0.295741
-0.210804 0.422794 -0.034329
-0.495124 -0.213459 0.141680
-0.042401 0.654359 -0.180210
-0.045409 0.055726 -0.326234
-0.103287 -0.047759 -0.194455
0.343908 -0.994704 -0.208189
0.059059 0.048302 0.127929
0.537770 0.111676 -0.042760
0.101573 0.271046 0.148893
-0.182936 -0.269012 0.165101
0.336939 -0.894870 -0.305041
0.518416 0.073175 -0.115440
-0.128275 0.297066 -0.124629
0.382394 0.167523 0.294614
0.004354 -0.487305 0.093213
-0.087561 0.799117 -0.067798
-0.016516 0.194867 0.255082
0.164883 0.484325 0.059507
0.202349 0.201602 -0.020742
0.240327 0.409006 0.290281
-0.094802 -0.120700 -0.082154
-0.248830 0.005015 0.199004
0.074271 0.710048 0.037336
-0.382704 0.202822 -0.013324
0.131474 -0.066247 -0.049854
0.345755 0.051352 0.314723
0.124541 -0.502880 -0.088686
0.052183 0.079964 -0.228802
-0.104154 0.083813 -0.292411
0.126665 -0.421133 0.123337
-0.152552 -0.036176 -0.324421
0.244723 0.397696 0.090597
0.119140 0.243708 -0.071622
0.163718 0.297476 0.104511
-0.438621 -0.092753 0.145273
-0.390998 0.362117 -0.175902
-0.468441 0.424828 -0.163427
0.157619 -0.292026 0.071424
0.032344 -0.305228 0.309224
-0.145411 0.340834 -0.070227
0.171212 -0.313212 0.043188
-0.347550 0.005714 0.163896
0.136780 -0.062200 -0.037770
-0.369263 -0.103394 -0.038691
-0.356327 0.289685 -0.135508
-0.296783 0.445756 -0.333467
-0.390237 0.197496 -0.021633
0.219777 -0.749474 -0.004058
-0.264349 -0.324879 0.262120
-0.291514 -0.145548 -0.012169
-0.328892 -0.100976 -0.225848
-0.007929 0.294701 -0.289599
0.214957 -0.716631 0.072191
0.531168 0.316698 -0.099815
-0.096958 0.057210 -0.222986
0.304528 0.178518 0.023096
-0.386737 -0.008307 0.183595
-0.343832 0.515156 -0.057426
0.334692 0.070444 0.140059
-0.308129 0.700190 -0.083243
0.523192 -0.017006 -0.074859
-0.284941 -0.319763 0.255156
0.043451 -0.115274 -0.009407
0.569793 0.026279 0.020534
0.056366 -0.175069 0.331377
0.020496 0.061987 -0.226806
0.210476 0.051772 0.080904
-0.134355 -0.086169 0.199772
0.191374 -0.305498 0.075071
0.321131 -0.898651 -0.301609
-0.062058 -0.384228 0.224157
-0.194510 0.035989 0.127984
-0.099304 0.701195 -0.185315
0.035398 -0.130670 -0.012715
0.169336 0.104185 0.161059
-0.109993 0.065327 -0.189578
0.215306 0.372846 0.197156
0.090099 -0.340547 0.216244
0.103062 -0.533220 -0.022750
-0.287685 0.357819 0.016530
-0.227300 0.308438 -0.366314
0.203221 -0.072815 0.053081
0.063045 -0.218700 -0.168828
0.247140 0.373159 0.198224
0.302151 0.007234 0.331168
0.044839 0.157494 0.124742
-0.265781 0.742420 -0.100133
0.066015 -0.397514 0.299770
-0.037470 -0.154611 -0.016932
0.488536 0.155668 -0.179314
-0.180095 0.331614 -0.074034
-0.128344 0.030542 0.238025
-0.336492 0.341506 -0.128022
-0.088500 -0.131652 -0.123465
-0.218440 0.264722 -0.054295
-0.159142 -0.205405 0.149965
0.560578 0.141380 -0.021647
-0.260401 0.352903 -0.021083
0.471846 0.295796 -0.104997
-0.469148 -0.302452 -0.130889
-0.193853 -0.422488 0.275951
-0.101383 0.063489 -0.203121
0.110139 -0.559720 0.035005
-0.016887 -0.306194 0.158355
-0.060550 0.182324 0.136018
0.144268 -0.498278 0.094298
0.215330 0.239172 -0.024532
-0.033737 -0.465009 0.072116
-0.275649 0.666902 -0.130641
0.231172 -0.057529 0.068229
-0.438200 0.300888 0.002026
0.030919 -0.405282 0.353166
0.382622 -0.839029 -0.365601
0.288080 0.213359 0.097564
-0.195129 -0.162250 -0.122091
0.025986 -0.173103 -0.005617
0.264079 0.332956 0.150184
0.172322 0.266179 -0.306013
-0.408530 0.396601 0.088774
-0.086122 -0.130816 -0.140716
-0.264594 -0.166254 0.048181
-0.186797 -0.384407 0.086403
0.066536 -0.604975 -0.250202
-0.379393 -0.245328 0.146010
-0.060263 0.256689 0.104090
-0.084963 0.762858 -0.082570
0.262376 -0.487436 -0.220484
-0.351174 -0.007998 0.168249
0.322955 0.170230 0.029497
-0.097534 -0.237833 0.000076
-0.159216 -0.315738 0.204500
0.039882 0.070480 -0.233496
0.372674 0.098083 0.305048
-0.459307 0.308755 0.020219
-0.075167 -0.399340 0.232766
-0.322736 -0.326676 0.138056
0.004354 -0.135049 -0.021785
-0.290841 0.269844 0.107661
-0.059704 -0.406667 0.069228
0.169128 -0.268539 0.155701
-0.111244 0.148572 -0.237486
-0.375709 0.383019 -0.177138
0.156257 0.229046 -0.020438
0.304810 -0.461414 0.128055
-0.229887 0.288102 0.086461
0.234466 -0.492978 -0.200862
0.043474 -0.370058 0.224804
-0.213648 0.431463 -0.312019
0.342877 0.220203 0.158464
0.096900 0.249501 -0.137341
0.225305 -0.860359 -0.201230
0.117573 0.315196 0.163494
-0.111900 0.816674 -0.085963
-0.136440 0.116526 0.186070
0.023872 0.113913 0.083170
0.007013 -0.086751 -0.025528
0.233105 -0.269270 0.194548
-0.592488 0.259430 -0.145488
-0.235580 -0.003246 0.181860
0.360564 0.088552 0.205201
0.345124 0.340500 0.316033
0.364688 0.211252 0.284333
-0.240756 0.811229 -0.146578
0.236868 -0.141672 0.150023
-0.447180 -0.057931 -0.193833
0.088425 0.312217 0.193024
-0.437881 -0.189443 -0.153373
0.443339 0.240126 0.202362
-0.348612 0.231861 0.085164
-0.529637 -0.131520 -0.180465
0.097332 -0.534786 0.011212
0.072191 -0.042126 0.113324
-0.333783 0.261676 -0.049464
0.212693 0.373942 0.197908
0.397051 0.253495 0.184186
0.521385 0.105468 -0.072816
0.242961 0.273231 0.160009
0.383744 0.307613 0.202006
-0.167229 0.117656 0.005651
-0.295260 0.647932 -0.115856
-0.211329 0.101354 0.154320
0.446231 0.263164 0.305896
0.339134 0.254009 0.117698
-0.313273 0.612958 -0.091300
0.058438 -0.387236 0.006862
-0.193629 0.057330 0.109696
0.379052 -0.736270 -0.244999
0.043181 0.053281 0.103303
-0.121315 -0.204723 0.145320
-0.086952 0.029366 0.245599
0.369135 0.211848 0.291275
-0.255688 0.115664 0.195343
0.095897 0.206746 -0.220389
0.166179 -0.622030 -0.199577
-0.244742 0.370605 -0.012503
-0.177747 0.135850 0.092168
0.097938 -0.155991 0.134908
-0.405485 -0.325967 -0.075055
0.315654 0.021144 0.320618
-0.013057 -0.293268 0.142588
-0.137711 0.148331 0.047466
-0.009504 -0.198167 0.141030
0.263723 0.339146 0.149221
-0.039815 -0.400095 0.051528
0.145141 -0.578186 -0.122837
0.354315 0.056582 -0.115508
-0.376418 0.339538 -0.227413
0.074339 -0.267154 0.059924
0.374898 0.181797 0.331116
0.228487 -0.565063 0.086997
0.145775 -0.336182 -0.036360
0.285034 0.001256 -0.029916
-0.429587 0.573751 -0.052715
-0.234724 -0.009338 0.054041
0.213588 0.313980 0.004135
0.051145 0.091467 -0.245545
-0.456702 -0.270710 0.097643
0.391030 -0.666501 -0.239627
0.138368 -0.395025 0.027557
0.022830 -0.320193 0.296717
-0.502934 0.303075 -0.208426
0.247532 -0.094742 0.169115
-0.203108 -0.017964 0.044582
-0.387484 0.426803 -0.144047
0.221957 -0.700101 -0.264809
-0.143480 0.516052 -0.137606
-0.174290 0.760073 -0.188743
-0.380155 0.416861 -0.163952
0.362319 0.214281 0.280851
0.023959 -0.491863 0.098694
-0.292353 0.568969 -0.099844
0.100655 0.658741 -0.023168
0.003565 -0.072210 -0.028997
-0.173963 0.762048 -0.189056
0.410500 0.287917 0.216678
0.127481 0.319126 -0.327619
-0.243452 -0.185677 -0.039343
0.082013 0.696720 0.052413
0.367088 0.039622 -0.107780
-0.177349 0.262935 -0.046466
0.369227 0.196434 0.302461
0.062536 -0.171769 0.334392
-0.226750 -0.044152 -0.213122
-0.328406 -0.311595 -0.061054
0.006263 0.375595 -0.061553
-0.082142 -0.007971 0.204656
0.090610 0.334596 0.185103
-0.209327 -0.378835 0.261222
-0.181404 0.198893 0.044297
-0.243192 0.070128 0.108693
-0.149505 0.238926 0.036291
-0.124908 0.033478 -0.239776
0.014940 0.231634 0.251409
-0.241897 -0.190013 -0.135961
-0.103808 -0.035500 -0.275068
-0.212683 -0.282336 0.219781
0.243110 -0.511293 0.062759
-0.181563 -0.016073 0.219610
0.364392 0.117251 0.339655
-0.096362 -0.326272 0.255976
-0.017359 0.201377 0.211999
-0.068832 -0.269517 0.192598
0.381298 -0.956010 -0.307975
-0.378556 0.122017 0.092150
-0.203080 -0.369738 0.252149
-0.575566 0.353822 -0.138048
-0.445055 0.423281 -0.171310
0.105243 -0.249827 -0.123564
-0.217968 0.335039 -0.058099
0.287050 -0.909912 -0.256731
0.034113 -0.415670 0.028381
-0.312106 -0.015552 0.000474
-0.375101 -0.242708 -0.121966
0.408370 -0.707007 -0.262094
0.078352 -0.444025 0.064179
-0.204440 -0.326231 0.062962
0.437660 -0.591323 -0.350501
-0.013700 -0.374550 0.023316
0.310654 0.340638 0.294273
0.365912 0.056964 0.278853
-0.405008 -0.312822 -0.090039
0.072736 -0.242114 0.113547
0.448294 0.217513 0.294261
-0.155510 -0.240021 0.083141
-0.036527 -0.343351 0.055462
-0.436175 0.566249 -0.056266
0.077214 0.327184 -0.063236
0.219438 0.424673 0.073118
-0.269396 0.019229 0.158447
0.524809 0.134232 -0.138722
-0.351550 0.337647 -0.164182
-0.390047 0.456515 -0.113400
0.339386 0.285453 0.169223
-0.012632 -0.144976 -0.022293
0.263111 -0.759025 -0.004759
-0.190277 -0.251156 0.056201
0.217742 -0.251921 0.204766
-0.200835 -0.146660 -0.158813
-0.153571 -0.330603 0.193276
0.496489 0.219502 -0.098956
-0.032187 -0.250268 0.016270
0.039198 0.662644 -0.093258
-0.306353 0.261800 0.106564
0.594607 0.155984 -0.084324
0.385460 -0.935302 -0.289865
0.130564 -0.638346 -0.135335
0.147909 -0.674515 -0.068442
0.524789 0.230084 -0.054728
-0.382828 0.081459 0.167625
0.104519 0.675997 0.064866
0.055229 -0.151341 0.353769
0.004514 -0.445888 0.030090
0.290699 -0.060599 0.127150
0.508559 -0.046457 -0.052720
0.109311 -0.561700 -0.045777
0.250221 -0.757751 -0.018810
0.146070 -0.126399 0.078941
-0.071976 0.802802 -0.018836
0.057042 -0.397730 0.011508
0.025495 -0.260609 0.207594
0.158883 0.272598 -0.037553
0.179812 0.060876 0.137931
-0.281646 -0.239617 0.068818
0.145434 -0.682819 -0.089487
-0.088247 -0.104544 -0.069978
0.147008 -0.098513 0.036805
-0.007866 -0.332341 0.228750
-0.219143 -0.070331 0.139199
-0.255733 -0.158257 0.079445
0.283688 -0.477703 0.100407
-0.052481 0.087438 0.198937
-0.038945 0.567996 -0.161529
0.447074 0.254616 0.305004
-0.082818 -0.079838 -0.089968
-0.386064 -0.216959 -0.155582
-0.554404 0.413030 -0.105041
-0.198646 -0.275391 -0.003927
0.091337 0.511007 -0.052955
-0.301010 0.401676 -0.317942
0.159565 -0.233366 0.221468
-0.443483 -0.053942 0.183896
0.422706 0.207553 0.149874
0.223132 -0.812656 -0.222511
-0.136873 0.311281 -0.080753
-0.119145 0.060475 0.202443
0.007075 0.204281 0.214399
-0.060528 -0.168329 -0.009276
-0.039289 0.037475 -0.163956
-0.382376 0.219216 0.026290
-0.107200 0.036427 -0.230554
0.010946 0.108328 0.059510
0.076220 0.499022 -0.048892
-0.126294 0.030088 0.234584
0.003066 0.620466 -0.181277
-0.497660 0.170810 0.006759
0.113620 -0.362991 0.030908
-0.247487 -0.059138 0.152443
0.206254 -0.563664 -0.185395
0.325594 0.000071 0.132758
0.360867 0.100927 -0.151369
-0.104751 -0.331170 0.272782
0.347457 0.088461 0.368633
0.044934 -0.398280 0.279233
-0.380587 0.327396 -0.283463
0.036135 0.488254 -0.066313
0.169504 -0.636039 -0.185971
-0.153850 0.589354 -0.181929
-0.421567 0.446122 -0.154521
-0.165286 0.752568 -0.192151
0.105036 0.463234 0.005055
0.057265 0.721336 -0.042407
-0.005191 -0.279268 0.080538
-0.573797 0.338203 -0.107275
-0.399525 0.049793 0.058480
0.048737 -0.173064 0.230216
0.148027 -0.660598 -0.206065
0.060341 -0.225249 0.355906
-0.328202 0.239415 0.168326
0.584730 0.229319 -0.029462
-0.358679 -0.126023 0.105138
-0.230464 -0.413714 0.267983
-0.353848 0.165412 0.085304
-0.095282 0.720048 -0.164022
-0.325770 0.322778 0.173092
0.124478 -0.402985 0.114126
-0.118139 0.684456 -0.204664
0.183212 0.332451 -0.315644
-0.045742 -0.089791 -0.331344
-0.314697 0.353605 -0.032152
0.449435 0.240033 -0.142239
-0.280041 -0.328256 0.261353
0.028692 0.473898 -0.031357
0.043117 -0.261705 0.353421
-0.327915 -0.223507 -0.144891
-0.571094 0.347514 -0.004305
-0.130766 -0.274658 0.313877
-0.551124 0.502891 -0.130352
-0.027642 0.061684 -0.155045
0.324458 -0.015385 0.145988
-0.387200 -0.054605 0.140717
-0.330985 0.363653 0.162410
0.420606 0.278757 -0.136893
-0.282675 0.026408 0.184928
-0.131294 0.326552 -0.104586
-0.436420 -0.061391 -0.193048
0.258928 -0.310037 0.098390
0.004110 -0.183080 0.153546
-0.158289 -0.286905 0.187587
-0.240807 -0.086539 -0.324464
-0.114925 0.027768 -0.221348
0.260544 -0.816671 -0.252448
-0.249301 0.109978 0.158013
0.477738 0.085959 -0.173082
-0.235740 0.610219 -0.157279
-0.148767 -0.134655 -0.229462
-0.231179 0.364109 -0.002046
-0.055264 0.040499 -0.131504
0.300918 -0.000731 0.303840
0.201782 -0.376284 0.034215
-0.462376 0.293368 -0.210747
0.049697 -0.394399 0.260833
-0.374648 0.186298 0.000007
0.316486 -0.819035 -0.309425
0.144099 -0.592542 -0.159055
0.417673 0.294399 0.323413
-0.374559 0.378734 -0.178286
0.544979 0.308657 -0.096687
0.247737 0.375590 0.064190
0.332538 0.015995 0.224403
0.309090 0.005788 0.321280
0.062923 -0.164222 0.322056
0.060924 -0.450167 0.056865
0.023326 -0.093203 0.294079
-0.338881 -0.078008 -0.046811
-0.382687 0.420800 -0.146545
0.243710 -0.374982 0.063154
0.119043 -0.535480 -0.064510
-0.500763 0.272509 -0.002972
0.248682 -0.720730 -0.313477
0.012173 0.706862 -0.076544
-0.295997 -0.087129 -0.011685
-0.213720 0.754270 -0.211472
0.154328 -0.687904 -0.178515
-0.301952 0.328525 -0.010592
-0.216694 0.847252 -0.070472
-0.125956 0.023367 -0.269041
-0.176963 0.112450 -0.042753
-0.438209 -0.055119 -0.034325
0.179938 -0.394962 0.019912
0.249236 -0.575687 0.110097
0.232197 0.274451 0.035008
-0.468728 -0.180562 -0.141311
0.366645 0.074507 0.265545
-0.519179 0.430754 -0.102527
0.356145 0.213607 0.170924
-0.286600 0.096774 -0.084039
0.204213 0.354807 0.179568
-0.306677 0.476731 -0.070772
-0.296370 0.271038 0.114801
-0.293801 0.579238 -0.101907
0.036772 0.070086 -0.304260
-0.332346 -0.017104 -0.084276
-0.054365 0.733640 -0.054288
-0.515748 0.450148 -0.105562
-0.144582 0.842827 -0.047003
0.262357 -0.398030 0.100126
-0.016000 0.064113 -0.200746
-0.125289 0.724516 -0.196502
0.344185 -0.987457 -0.225072
0.081411 0.230494 -0.060407
-0.066529 0.631190 -0.199609
0.263772 -0.505252 0.076735
0.060771 -0.234692 0.251316
0.061222 -0.444711 0.044878
-0.022328 0.209466 0.277769
-0.022911 -0.114947 -0.179896
-0.010632 0.079653 0.182669
-0.482508 -0.061235 -0.194409
0.239654 -0.489327 -0.192425
0.063914 0.395742 -0.039119
-0.005236 0.756139 -0.002236
-0.014684 0.341241 0.007423
0.049089 0.133961 0.104626
-0.074101 0.043843 0.204406
-0.517308 0.466810 -0.149027
0.065397 0.091744 -0.241986
0.022920 -0.026411 -0.317667
0.180326 0.074776 -0.148003
0.446011 -0.657762 -0.353840
0.393331 -0.860249 -0.394030
0.051873 0.116978 -0.350310
0.357365 0.061424 -0.131888
-0.084352 -0.292040 0.136090
0.256075 -0.428483 0.044764
-0.269467 -0.322916 0.074260
-0.263166 -0.178794 -0.156978
0.321744 0.386700 0.241544
0.126853 -0.614308 -0.110062
0.137236 -0.655524 -0.095020
-0.067245 0.660343 -0.175974
0.269861 0.405249 0.280271
-0.383494 -0.245012 -0.136307
0.449276 -0.651814 -0.348203
-0.065016 0.083083 0.199831
0.336462 0.295341 0.148018
0.536696 0.106786 -0.045944
-0.094064 -0.034806 -0.304446
0.200793 0.401934 0.016307
-0.350739 -0.321149 0.147021
-0.092609 0.396830 -0.064735
-0.381543 0.120384 0.196443
0.106030 -0.259786 0.069358
0.117662 -0.594914 0.005859
0.326957 0.202420 0.112936
-0.021660 -0.192425 -0.058968
0.320781 0.010613 0.207185
-0.354632 -0.047691 -0.225190
0.143830 0.389174 0.262418
0.285905 0.225158 0.057901
-0.122443 0.023033 -0.267097
0.286091 -0.515397 0.097088
0.143020 -0.519300 0.077805
-0.440457 -0.081403 -0.036870
0.369353 0.138508 0.113970
-0.429445 0.143554 0.013518
-0.009130 0.227897 -0.325716
-0.347768 -0.058877 -0.227105
0.270296 -0.896520 -0.248750
-0.260858 -0.053602 0.109920
-0.309793 -0.169811 0.095582
-0.210398 -0.017759 0.054435
0.174418 -0.447921 0.044444
0.548309 0.146216 -0.080056
-0.073804 -0.204539 0.147296
0.225243 0.277943 0.089917
0.206524 -0.760585 -0.224159
0.312275 0.167064 0.024108
0.240439 0.286292 0.210017
-0.204923 0.818826 -0.138906
0.365151 0.182245 0.098562
0.094015 0.179565 0.120972
-0.294354 -0.012991 -0.101904
0.314802 0.070393 0.125854
0.001292 -0.221763 0.146177
0.431451 0.307742 -0.138294
0.106803 -0.603109 0.093973
0.366893 -0.987956 -0.254191
0.241287 -0.352370 0.101103
-0.381263 0.343161 -0.230488
-0.366925 0.285864 -0.303156
0.274215 -0.375873 0.087234
-0.510849 0.426198 -0.089779
-0.233515 -0.175777 -0.058238
0.186008 -0.718012 -0.093150
0.277478 -0.392985 0.119725
-0.274208 0.745723 -0.093567
0.057888 -0.013644 0.142813
0.007989 -0.040705 0.173251
0.037027 0.033347 -0.345635
-0.463029 -0.028289 -0.213717
-0.107749 0.503736 -0.100066
-0.104561 -0.337907 0.381071
-0.484235 0.507517 -0.100541
0.125577 0.631854 0.017243
0.074443 -0.358752 -0.003944
0.432508 0.287646 0.312912
-0.204756 0.393964 -0.305185
-0.080776 0.372850 -0.028174
-0.103408 0.591772 -0.186680
0.063418 -0.411439 0.339270
0.266947 0.362499 0.168799
-0.174477 -0.071516 -0.331894
-0.319193 0.166488 0.159238
0.128924 -0.144893 0.118045
-0.045627 0.044473 -0.347994
0.149003 -0.088667 -0.023253
-0.235096 -0.355843 0.079093
0.186117 0.323496 0.127581
-0.561800 0.375549 -0.101433
-0.359604 -0.104545 -0.035473
0.269909 0.398725 0.258066
0.053741 -0.450513 0.070021
0.225076 -0.081735 0.095397
0.188261 -0.163064 0.125596
-0.222990 -0.204317 0.049203
0.352887 -0.969799 -0.254818
0.265299 -0.375452 0.111723
0.167042 -0.701486 -0.024768
-0.064774 -0.278785 0.128911
0.375527 -0.814968 -0.351699
-0.282014 -0.262674 -0.105975
-0.313524 -0.358635 0.123979
-0.196343 0.101223 0.044931
-0.080356 0.223068 0.069949
-0.284898 -0.208533 0.081877
-0.354191 -0.235276 -0.141524
-0.253967 -0.030860 0.188580
0.257517 -0.702735 -0.221412
-0.163353 0.105399 0.102834
-0.063239 -0.389471 0.237996
-0.145205 -0.020041 -0.322016
0.186626 -0.662428 0.061625
-0.366584 0.182754 -0.050529
0.209027 -0.566873 -0.212024
0.235157 0.260450 0.047801
0.023364 -0.021546 -0.300844
0.175314 0.068933 -0.148447
-0.526555 0.403158 -0.144636
0.006268 0.511819 -0.224737
-0.215280 0.766793 -0.101169
0.377171 0.334324 0.227383
0.008180 0.293036 -0.078901
-0.140668 -0.309844 0.193071
-0.468025 0.142877 0.017066
-0.044989 -0.352552 0.052026
-0.201909 0.748389 -0.212237
0.139150 -0.609200 -0.138932
0.419494 0.129226 0.202092
0.461127 0.217483 -0.152735
-0.093118 0.147196 0.104485
-0.430065 0.469708 -0.138793
0.162622 -0.641053 0.057489
0.227466 0.382384 0.022817
-0.538352 0.454640 -0.105445
0.193338 -0.271908 0.157540
0.174571 -0.295816 0.094723
0.360875 0.035380 -0.101405
-0.193094 -0.172039 0.163660
-0.470978 0.345334 -0.212513
-0.429422 -0.204945 0.125046
-0.452984 -0.066396 0.184909
0.361584 0.066148 0.247714
-0.121048 0.201364 0.042072
-0.039698 -0.382639 0.330544
0.102028 -0.563958 0.010472
-0.382634 0.129342 0.076510
0.081431 0.309424 -0.321391
0.230737 -0.012738 0.202812
0.103548 -0.118520 0.104176
0.358058 -0.742609 -0.231717
0.140213 -0.275101 0.068932
-0.374408 0.314968 0.089428
-0.069922 -0.184377 0.152385
0.472662 0.063824 -0.101521
0.318966 0.326784 0.222031
-0.256155 -0.033921 0.183743
-0.005203 0.583364 -0.169309
0.089052 0.584471 -0.084283
-0.436962 -0.212106 0.124159
-0.002358 -0.395890 0.264849
-0.207571 0.369465 -0.033711
0.065082 0.467491 -0.018271
-0.406413 -0.226563 0.100925
-0.080804 -0.112798 -0.130861
-0.094645 -0.036999 -0.239964
0.174665 -0.059417 0.040001
-0.265838 -0.024439 0.069649
-0.044440 -0.047829 -0.158431
-0.136375 0.584969 -0.182980
-0.136207 0.721631 -0.202406
-0.107299 0.095332 0.204784
-0.192754 -0.132352 0.103978
-0.589276 0.242094 -0.157607
-0.064826 -0.441591 0.089236
-0.423799 -0.257900 0.134106
-0.488962 0.484184 -0.117406
0.103218 -0.331587 0.208015
0.445279 -0.607001 -0.358250
0.229395 0.366105 0.028685
-0.003919 0.457363 -0.041835
0.599478 0.257955 -0.039714
-0.335380 0.287955 -0.097381
0.084755 0.693848 -0.026404
0.057230 -0.401862 0.343945
-0.013263 -0.257508 0.032027
0.020524 0.739679 -0.018499
-0.324858 -0.224610 -0.142274
0.564982 0.061690 0.023578
0.323651 0.342564 0.162812
0.043334 -0.124064 0.260364
-0.166625 0.116938 -0.046931
-0.413029 -0.117718 0.123065
0.186731 -0.582242 0.104700
0.531243 0.096905 -0.054717
-0.452777 0.283900 -0.211141
-0.398218 0.348841 0.091445
-0.291180 -0.106649 0.159226
0.211666 0.334973 0.129638
0.256831 -0.117053 0.127172
-0.137788 0.019677 0.222743
-0.449920 -0.085865 -0.177343
-0.098499 0.558790 -0.168581
-0.428458 -0.237575 -0.154077
-0.333994 -0.110373 -0.081614
0.550077 0.213047 -0.045191
-0.359095 0.251176 -0.096391
-0.341567 -0.029732 0.147589
0.193116 0.038023 0.155383
-0.121524 0.221634 0.042761
0.534372 0.140514 -0.117350
-0.223558 0.132267 0.044765
0.387858 -0.965157 -0.310197
0.300140 -0.007591 0.279903
0.267586 -0.030357 0.099624
-0.122843 0.832622 -0.008783
-0.296693 -0.232201 -0.136128
0.167990 -0.118329 0.064459
0.339778 0.333820 0.169579
-0.049561 -0.120636 -0.042746
-0.248282 0.158651 0.073255
-0.204433 0.211861 0.046684
-0.227055 0.788996 -0.184046
-0.339838 -0.248159 0.075240
-0.126830 -0.230250 0.142868
0.191274 -0.761696 -0.197679
-0.019266 -0.035463 -0.328379
-0.114988 0.026549 -0.238150
-0.341174 0.300510 -0.026039
-0.078072 0.808029 -0.032424
-0.502813 0.401407 -0.149188
-0.353558 0.358396 0.118671
-0.446319 -0.243415 0.122989
-0.121781 0.725233 -0.132930
0.341449 0.113473 0.122463
-0.257838 0.171511 -0.335831
0.195828 0.025243 0.160520
0.379286 -0.829732 -0.379377
0.467381 0.098727 -0.189871
0.244189 -0.409825 0.059688
0.138382 -0.244896 0.178175
0.332260 -0.058930 0.158943
-0.338279 0.376832 0.161895
-0.278122 -0.024079 0.075514
0.477347 0.085698 -0.139070
-0.272960 -0.251748 0.063510
-0.235239 0.190556 0.056531
-0.354743 0.081538 -0.045590
0.264613 -0.728012 -0.335018
-0.331377 -0.215204 0.073706
0.129310 -0.283062 -0.076544
0.026833 0.053272 0.099403
-0.242864 0.052122 0.115720
0.556927 -0.039030 0.022686
-0.319357 0.335029 -0.009305
0.417889 0.303871 -0.166304
-0.228379 -0.139212 -0.166105
0.194493 0.440825 -0.352567
0.187651 0.417708 0.284899
-0.004870 0.362956 -0.299775
-0.250805 0.708236 -0.131928
0.042818 0.495733 -0.006018
0.354820 0.054208 -0.113581
-0.108816 0.032959 -0.223010
-0.220058 0.136608 0.036902
0.132911 0.309677 0.141968
-0.018555 0.090910 -0.213792
-0.404410 0.037703 0.200558
0.005582 0.762687 0.021241
-0.116303 -0.220926 0.007997
0.031200 0.064669 -0.331847
0.542091 0.144122 -0.085937
-0.026886 0.774729 -0.026323
-0.393199 0.331140 -0.244672
0.443015 -0.634492 -0.344533
-0.341809 0.335098 -0.148208
-0.516925 0.182375 0.022540
-0.021204 -0.292472 0.110425
0.226842 0.391213 0.263332
-0.253117 -0.055049 -0.176052
-0.267246 0.024439 0.186615
0.255531 -0.764834 0.049467
-0.432306 0.237500 -0.188231
-0.112887 -0.092899 -0.307404
0.225080 -0.265274 0.159749
0.042045 -0.390266 0.265149
-0.067753 0.655051 -0.167748
0.121492 0.577576 -0.013015
-0.335806 0.044202 0.151638
0.129773 -0.675857 -0.234788
0.141973 0.214889 0.103370
0.466169 0.064461 -0.106376
0.225012 0.361003 0.196973
0.297675 0.113360 -0.155997
-0.021224 0.194723 0.270985
0.183269 0.377931 0.218349
-0.273622 -0.083949 -0.241166
0.053375 0.627579 -0.103658
0.210924 -0.599499 -0.237220
-0.296823 0.514330 -0.065508
-0.016880 -0.069649 -0.033353
0.221810 0.430300 -0.387160
-0.248673 0.187022 0.063618
0.455521 0.234036 0.233430
0.171739 -0.291999 0.108907
-0.173877 -0.356865 0.222926
-0.213701 -0.101564 -0.201918
0.110901 -0.585329 -0.025844
0.498256 0.133594 -0.182101
-0.025081 -0.080764 0.229449
0.593813 0.201823 -0.072025
-0.066257 -0.062865 -0.152243
0.215657 -0.184933 0.163158
-0.323101 0.386934 -0.109965
0.384468 -0.965418 -0.284348
0.348402 -0.785976 -0.351682
0.239250 -0.290894 0.103786
-0.340614 0.006640 0.160624
0.047334 -0.272930 0.253408
0.215172 0.402494 0.011352
0.016803 0.109286 0.053390
-0.066438 -0.375104 0.363517
0.211887 -0.190861 0.147951
-0.204089 -0.245773 0.170754
-0.288778 -0.183781 -0.203526
0.245423 -0.507924 -0.225329
0.214641 0.049187 0.081235
0.286896 0.227963 0.065002
0.293687 0.035890 0.111333
-0.253719 0.786705 -0.177831
-0.370652 0.107241 0.217411
0.546109 -0.064337 0.016413
0.060483 -0.186440 0.318892
-0.376642 0.034985 0.181368
0.277647 0.324810 0.146360
0.033149 0.332392 -0.078719
0.176349 0.117827 0.159413
0.206509 0.441035 -0.372063
0.273589 0.242361 0.075101
-0.346855 0.353655 -0.157021
-0.114879 0.298553 -0.139609
0.415177 0.325865 0.294774
-0.445170 -0.368052 0.117540
0.349482 0.121049 0.144415
-0.294845 0.693232 -0.114453
0.163854 -0.105355 0.063738
-0.110501 -0.329038 0.299359
0.336463 -0.987251 -0.201627
0.316113 -0.641146 -0.233533
-0.311024 0.268179 0.139483
-0.331932 0.542460 -0.046543
-0.224184 -0.165695 -0.075179
-0.128733 -0.128417 0.177686
0.467972 0.203300 -0.157373
0.247474 -0.379987 0.079286
0.040512 -0.127245 -0.010372
-0.325525 0.389766 -0.130065
0.103939 0.662411 0.036287
0.140954 -0.400906 0.038906
0.511150 -0.040392 -0.061661
-0.268057 -0.166928 0.041781
0.427567 0.209877 -0.192015
0.286735 -0.037717 0.126232
0.259982 -0.177011 0.197403
0.416974 0.219251 -0.196120
-0.498062 0.409193 -0.149868
0.104509 -0.243971 0.130983
-0.366773 -0.003748 -0.073847
0.495114 -0.010505 -0.110562
0.124758 -0.394416 0.043154
0.472429 0.083618 -0.180648
-0.512056 0.409630 -0.098621
0.317401 0.012709 0.235051
-0.132211 0.312580 -0.110257
0.268548 -0.549864 0.092815
0.144421 -0.624196 0.030970
-0.410504 -0.045172 -0.044790
0.161985 -0.700107 -0.073764
0.556460 0.309098 -0.087830
-0.430321 -0.279693 -0.105972
0.072669 0.705159 0.060121
0.219129 -0.080071 0.073040
0.231535 -0.157357 0.147507
-0.324457 -0.149236 -0.220079
0.331439 0.271827 0.128791
-0.197553 0.194592 0.043401
0.289874 -0.631344 -0.236340
0.539716 -0.011428 -0.041006
0.053900 -0.169594 0.352403
0.390215 0.255720 0.163579
0.189677 -0.210251 0.159240
-0.206215 -0.065821 0.083421
0.227236 -0.745675 0.004109
0.324704 -0.952259 -0.249219
0.383577 0.118458 0.294590
-0.342498 0.193694 0.191623
-0.324044 0.035811 -0.062162
-0.102076 0.799806 -0.094674
0.097158 0.266236 -0.127763
0.005173 0.058675 -0.211724
0.373499 0.152954 0.305578
0.179269 -0.094675 0.079487
0.152362 -0.692033 -0.013155
0.044514 0.232882 0.156660
-0.374652 0.453351 -0.100061
-0.304220 0.461388 -0.088299
-0.220983 -0.217020 -0.115333
-0.468157 -0.229658 0.135828
-0.281716 0.293758 -0.320215
-0.271010 -0.211724 -0.145074
-0.332142 0.105345 0.122968
-0.089421 -0.307093 0.146740
0.035944 -0.401637 0.023749
-0.427137 -0.278053 -0.105948
-0.112091 0.157103 -0.232094
-0.306272 -0.096672 -0.098264
-0.205819 0.181825 0.043593
0.288181 0.012488 0.116706
-0.076652 -0.297820 0.203195
0.032330 -0.168250 0.000572
0.201349 -0.029259 0.049080
0.113410 -0.354289 0.241707
0.564158 0.072180 0.017899
-0.024156 -0.317955 0.164998
-0.366091 -0.109648 -0.033114
-0.012409 0.139145 -0.238501
0.165890 -0.387664 0.004885
0.066706 -0.205548 0.320031
0.311690 0.024980 0.185182
0.159691 -0.098719 0.027568
0.028366 0.138330 0.109767
0.128275 -0.418592 0.137609
-0.200846 -0.239942 0.167915
0.055031 -0.164114 0.343116
-0.256239 0.784072 -0.176193
0.283391 -0.468136 0.098630
-0.218897 -0.352597 0.066164
0.182698 0.458472 0.039056
-0.144395 0.088363 0.131249
-0.148039 0.046887 0.146432
0.052725 0.156999 0.127112
0.111783 0.308326 -0.341854
-0.424595 0.142309 0.042064
-0.035469 -0.114099 0.174975
0.252894 0.031395 -0.078722
0.336476 -0.491594 -0.261012
0.253919 0.356530 0.071811
0.318377 0.195397 0.056146
0.093066 -0.375328 0.013490
-0.279026 -0.176767 0.080848
0.162856 -0.297260 0.065516
0.165323 0.410134 0.002595
0.009976 0.017336 0.118789
-0.082360 -0.094725 -0.221517
-0.427503 -0.286331 0.130776
0.291895 -0.108863 0.141895
0.501716 0.280446 -0.086754
0.176851 0.367582 0.186205
0.346072 0.166716 0.142433
0.433306 -0.604896 -0.348865
0.161616 -0.504382 0.060670
-0.307579 0.278037 0.142425
0.245696 0.121281 -0.019092
-0.311321 -0.105132 -0.041468
0.331087 0.018797 -0.084472
0.105220 -0.253541 -0.114002
0.271389 0.387453 0.223339
0.164241 -0.632208 0.068786
0.294289 -0.014077 0.251217
-0.380573 0.189694 0.088704
-0.493646 0.255320 -0.202062
-0.259348 0.255565 -0.331000
0.266216 -0.306031 0.111055
0.058774 0.172626 0.130405
-0.272931 -0.133926 0.090337
0.553013 0.151097 -0.041718
0.140645 -0.397409 0.026782
-0.313267 -0.105178 -0.044042
-0.059314 -0.364150 0.186019
0.064612 0.007855 -0.252708
-0.244364 0.558397 -0.139368
-0.271597 -0.072283 -0.126306
-0.319158 0.375997 -0.152555
-0.200854 0.657010 -0.164779
-0.318099 -0.406396 0.143789
-0.324148 -0.148139 0.082808
-0.009294 0.246234 -0.325783
0.173200 -0.677787 0.083919
-0.468931 0.492041 -0.114450
0.257485 -0.017280 0.086903
-0.077654 -0.365873 0.303295
0.156620 -0.268508 0.165988
0.248923 -0.124314 0.123332
0.389102 0.096984 -0.151609
-0.438170 -0.055355 -0.038874
-0.217325 -0.167752 -0.137366
0.265124 -0.005366 0.208993
-0.154321 -0.312702 0.062839
-0.091143 0.019763 0.245686
0.022617 -0.207304 0.173026
0.406759 0.037653 -0.083749
-0.133073 -0.199303 0.125816
0.013678 0.124968 0.091179
0.086803 -0.321669 0.011243
0.623753 0.015677 0.036486
-0.408958 0.017632 0.193968
-0.016557 0.649615 -0.137069
-0.444485 0.450794 -0.149078
0.135386 0.620867 0.023922
-0.301715 0.469662 -0.076422
0.020661 -0.376189 0.002953
-0.324110 0.007509 0.141800
0.028729 -0.172185 0.193934
-0.330467 0.332298 -0.012677
0.020629 0.203244 0.198111
0.128619 -0.565638 0.128789
0.379387 -0.814976 -0.400303
-0.519534 0.461030 -0.108512
-0.374820 0.125198 0.091034
0.105175 -0.284271 -0.084854
0.302072 -0.794068 -0.297295
0.294373 -0.048682 0.131186
0.162996 0.347342 -0.318148
0.410927 0.146105 0.150816
0.182917 -0.726096 -0.199931
0.251578 -0.151590 0.194512
-0.233468 0.285500 0.087150
-0.198583 -0.222162 -0.116504
-0.447331 -0.230864 0.127792
0.355433 0.185037 0.087429
0.331919 -0.767422 -0.418100
0.247133 -0.854281 -0.227376
0.462269 0.045656 -0.086324
-0.301179 -0.140765 -0.031047
0.031750 0.175549 0.147668
-0.158742 -0.383356 0.224668
0.047422 -0.142724 0.291091
-0.057923 -0.065080 -0.333778
-0.182523 -0.386485 0.257768
-0.250054 0.172369 -0.332588
0.013219 -0.159904 -0.246908
0.363542 0.114908 -0.155682
-0.235380 -0.198211 0.176280
0.285805 -0.892495 -0.275341
-0.111861 0.169563 -0.226607
-0.278835 -0.035303 0.207113
0.026577 0.455541 -0.038206
0.327471 0.014116 0.133783
0.615406 0.259234 -0.045563
-0.388591 0.361500 -0.234565
-0.352443 0.280756 -0.004335
-0.258821 0.667620 -0.151574
0.384838 0.129217 0.217601
0.130627 -0.257112 0.160587
-0.148547 -0.292793 0.189735
-0.083944 -0.139768 -0.110770
0.041623 -0.244878 0.239911
0.253168 0.249241 0.075711
0.230578 0.413859 0.290188
-0.312414 -0.187724 -0.224245
-0.251793 0.318091 -0.055871
-0.255323 -0.093141 -0.212838
0.072596 -0.409026 0.323201
-0.009997 0.110370 0.163131
-0.343285 -0.012641 -0.080375
0.427437 -0.613678 -0.337124
-0.092090 0.003335 0.240304
0.335399 -0.987718 -0.213667
-0.157164 0.119537 0.135300
-0.263868 -0.206745 0.012136
0.079233 0.209662 0.143786
0.012267 0.117939 0.091290
0.109730 0.295020 0.151979
-0.355938 -0.016806 -0.341924
-0.026248 0.057640 -0.157100
-0.348299 -0.127758 0.096994
0.300765 0.319917 0.137108
-0.450541 -0.264329 0.101514
-0.405071 -0.002596 -0.073605
-0.302425 -0.111912 -0.027363
0.185414 -0.089576 0.036046
-0.229174 0.035237 0.123022
0.140806 -0.636103 -0.143894
0.156714 0.277731 0.096617
-0.394289 0.068046 0.182171
-0.286216 0.073799 0.147144
0.415686 0.251527 -0.184602
0.419480 0.082977 -0.156240
0.314071 0.147868 0.046328
-0.300221 0.006812 0.071867
-0.362513 -0.164155 0.105504
-0.456235 0.462756 -0.145408
-0.043750 0.086055 -0.165505
0.124229 0.323632 -0.325824
0.189210 0.295999 -0.342009
0.116318 0.292960 -0.086150
-0.047545 0.662239 -0.172455
0.258036 0.105938 0.073220
0.066887 0.346736 -0.066611
0.099323 -0.545346 0.008996
-0.330112 0.534002 -0.047896
0.014396 -0.398014 0.292620
-0.119269 0.141134 0.075379
-0.205440 -0.058201 0.087675
0.474175 0.086471 -0.191579
0.115221 -0.241984 0.120406
0.091231 0.017065 -0.240510
-0.053413 -0.229248 0.143307
0.063211 0.111522 -0.334275
-0.466082 -0.111242 -0.162694
-0.040340 0.008300 0.156370
-0.126252 0.100679 0.184342
0.192123 -0.194821 0.145705
-0.032384 0.377262 -0.333694
-0.333395 -0.023503 0.147546
0.363331 0.069584 0.199843
-0.219081 0.568665 -0.149998
-0.474632 0.409664 -0.157979
0.092032 -0.547320 0.044466
0.512598 0.113702 -0.134606
-0.101644 -0.039663 -0.271073
-0.085129 -0.111549 -0.110316
-0.160666 0.532044 -0.153482
0.143482 0.388335 0.246204
0.146553 0.344144 0.161195
0.187720 0.445845 0.044167
-0.572709 0.327719 -0.156228
0.348005 -0.013571 0.158113
0.253015 -0.115919 0.179328
0.055033 -0.207662 0.247149
0.250337 -0.743474 -0.041263
-0.049398 -0.389233 0.280026
0.333255 0.038147 0.341858
0.133434 -0.666015 -0.031252
0.171635 0.297688 -0.028418
0.132150 -0.108261 0.078363
0.256774 -0.023416 0.087100
-0.285784 -0.060640 -0.135437
0.036124 0.106259 -0.355200
0.375545 0.179143 0.305730
0.208286 0.032870 -0.335796
-0.330911 0.040768 -0.063104
-0.100823 -0.303646 0.151659
0.213411 0.345152 0.153490
-0.062679 -0.373014 0.375057
0.269623 -0.280643 0.176565
-0.165366 0.011251 0.162268
0.428307 0.027401 -0.066196
-0.108925 0.833948 -0.021106
0.366725 0.273031 0.171748
0.107542 0.428791 -0.046650
0.293972 0.149548 -0.029708
0.365418 0.298885 0.191638
-0.468349 0.555128 -0.082387
0.050562 -0.258301 0.320160
0.029258 -0.116466 0.244949
-0.289520 0.156101 0.114383
0.114275 -0.262351 -0.119524
0.262576 0.241841 0.075453
0.220294 -0.446600 0.033055
0.237207 -0.164920 0.174081
-0.160220 0.754005 -0.190366
0.050174 -0.492070 0.127139
-0.146997 0.011524 0.221075
0.051771 -0.176855 0.243852
-0.339171 0.037908 -0.061396
-0.318004 0.659827 -0.103620
0.101584 0.536659 -0.041417
0.010433 0.115916 0.074418
-0.037016 -0.095525 0.206390
-0.371481 0.193772 -0.006121
0.060040 0.547586 -0.097860
0.058487 -0.362161 0.220133
-0.101722 0.356382 -0.047835
-0.310284 -0.005134 0.090949
-0.277817 0.114423 0.176603
0.147249 -0.662117 -0.157906
-0.207294 0.134111 0.053342
0.033113 0.183090 0.147467
-0.346634 -0.152631 0.094426
-0.034969 -0.120108 -0.153522
0.112942 0.228569 -0.059224
-0.294118 0.137373 0.174136
-0.406876 -0.102282 -0.037409
-0.429477 0.414835 -0.175649
0.216792 -0.394638 0.041008
0.246790 -0.884467 -0.221501
-0.112902 0.097281 0.180472
0.030247 0.026569 -0.336941
-0.372180 -0.325307 0.152766
-0.382738 -0.337345 -0.072392
0.550045 0.146115 -0.037338
-0.383406 -0.237086 0.144049
0.112712 -0.428754 0.096209
0.071994 -0.415551 0.327186
-0.150570 -0.283508 0.165996
0.538688 0.034271 -0.045452
-0.038496 0.758768 -0.025182
-0.548946 0.355399 -0.143074
0.369342 0.123131 0.188333
-0.446341 0.255775 0.003233
0.180398 0.160207 0.093497
-0.292096 -0.336037 -0.056184
-0.238214 -0.378176 0.272178
-0.355500 -0.167400 0.100489
-0.245395 -0.122631 0.034571
0.532063 -0.006945 -0.063728
0.134193 0.189236 -0.021771
0.264322 -0.423578 0.083280
-0.435637 0.121878 0.051044
0.374263 0.187488 0.306302
0.062336 0.152915 0.104831
0.362220 0.102706 -0.152151
0.382531 -0.940705 -0.283865
-0.445999 -0.062479 0.190962
-0.305848 -0.164218 0.106240
-0.057697 -0.250999 0.133893
-0.427910 -0.102570 -0.179526
-0.380479 0.405801 -0.182196
-0.043461 0.699563 -0.140325
-0.068220 -0.364852 0.185386
0.281247 0.358854 0.163170
0.507227 0.100807 -0.202488
0.393601 -0.871644 -0.337162
0.194953 -0.167919 0.122101
-0.166402 0.005997 0.245768
-0.019743 0.615093 -0.216692
-0.492314 0.543466 -0.095674
0.338171 0.148319 0.119738
-0.114095 0.160073 0.061396
0.366612 -0.964119 -0.266528
-0.001298 0.615448 -0.208414
0.081006 0.305983 -0.332714
0.499739 0.303942 -0.110329
-0.035789 0.161793 0.264893
-0.452500 -0.260969 0.105697
0.286900 0.073298 -0.121861
-0.194548 -0.140580 0.097902
-0.244093 0.146178 0.080304
0.334012 0.344720 0.248804
-0.087549 0.406244 -0.070080
0.378199 0.112236 0.316681
-0.351375 -0.290883 -0.075469
0.064514 -0.386847 0.271190
-0.093256 -0.039472 -0.273468
0.321728 -0.834341 -0.316203
-0.396509 0.433512 -0.160431
0.079932 0.701759 -0.016174
-0.140955 0.120189 0.185428
-0.403555 -0.141670 -0.182517
-0.294936 0.144949 0.200878
0.586841 0.105230 0.017669
0.173617 -0.289747 0.093452
0.375120 0.349186 0.258987
-0.307289 0.517919 -0.062962
0.313361 0.201480 0.058028
-0.031936 0.644210 -0.180193
-0.124855 0.299303 -0.071449
-0.362378 -0.028069 0.180368
-0.179560 0.756776 -0.117449
-0.425788 -0.021734 -0.225348
0.284591 -0.360101 0.104960
-0.008535 -0.419316 -0.323179
-0.303922 0.584841 -0.098867
0.235433 -0.680027 -0.227485
0.034209 0.029838 -0.342116
-0.085551 -0.083705 -0.093271
0.602699 0.282898 -0.056624
0.283100 -0.480190 0.100982
-0.174611 -0.271547 0.057366
0.360493 -0.789307 -0.367643
-0.191621 0.005382 0.254430
0.522312 0.011762 -0.071851
0.037732 -0.260407 0.244346
0.122756 0.625569 0.021106
0.011881 -0.501635 0.114391
0.133672 -0.138581 0.094745
-0.171901 -0.184892 -0.152781
-0.300830 -0.095818 -0.106945
0.213309 -0.282964 0.123317
-0.094788 -0.110676 -0.088003
-0.181136 -0.277791 0.005600
-0.046292 0.498414 -0.028383
0.001821 -0.498336 0.112313
-0.006672 0.639450 -0.147584
-0.571651 0.294207 -0.097057
0.000471 -0.415894 -0.311815
-0.075975 0.522498 -0.118364
-0.072101 0.716534 -0.118772
0.035744 -0.355500 -0.000366
-0.310474 0.320621 -0.309175
-0.528655 0.382968 -0.147039
0.198026 0.017975 0.063412
0.211855 -0.557595 -0.223497
-0.310191 -0.152714 0.070195
-0.101429 0.790163 -0.122495
0.214660 -0.059984 0.055810
0.259277 -0.010068 0.236368
0.535938 0.063874 -0.011222
-0.478001 -0.258529 0.102089
0.514159 -0.010046 -0.082247
-0.138901 -0.159204 0.160791
-0.039373 -0.151042 -0.025320
0.246832 0.291088 0.201360
-0.212516 -0.415173 0.093539
0.247711 -0.754342 0.018579
-0.411927 -0.099279 -0.031894
-0.282435 -0.062209 -0.117298
0.216854 -0.151973 0.134050
-0.150827 0.761486 -0.180823
-0.373379 0.278419 0.079793
-0.416089 0.294020 0.006187
0.046801 -0.140816 0.298891
-0.286198 0.644351 -0.122025
-0.180256 0.003244 0.162649
0.241065 -0.293131 0.104680
-0.181620 -0.218962 -0.128270
-0.072069 0.068433 0.213087
-0.307822 -0.016925 -0.095204
0.111705 -0.546404 -0.018733
-0.069206 -0.317292 0.200433
-0.117797 0.709473 -0.192079
0.189631 0.444604 0.044619
-0.163538 0.140045 0.175791
-0.405615 -0.298675 0.152756
0.195398 0.282017 -0.034808
0.172980 -0.257818 0.194921
-0.246148 0.269690 -0.338146
-0.446489 -0.050799 0.188789
0.090014 0.330398 -0.326267
0.189869 -0.356903 0.034432
-0.351126 0.015042 -0.062720
-0.356355 -0.007029 0.169932
-0.354888 -0.108345 0.102686
-0.089908 0.044720 -0.261396
-0.359583 0.402362 -0.145466
-0.314818 -0.005424 0.024009
0.172349 -0.350124 0.038110
0.109907 0.541905 -0.043095
-0.369870 0.188871 0.023382
-0.242293 0.001095 0.182293
0.326069 -0.922176 -0.270659
-0.448522 -0.116358 -0.025365
-0.143390 0.798250 -0.153720
0.207722 0.243502 0.081437
0.273887 -0.849497 -0.261875
0.247654 -0.790428 -0.251173
-0.417062 -0.029767 0.186983
-0.534249 0.349778 -0.095188
0.527906 -0.055567 -0.019964
-0.108501 -0.059323 -0.195647
-0.271192 -0.396110 0.111296
0.617093 0.301624 -0.082068
0.512762 0.099591 -0.158492
0.048994 -0.047515 0.144668
-0.175847 -0.225823 0.072650
-0.463709 0.443336 -0.147038
-0.104981 0.339830 -0.061858
-0.155546 0.761795 -0.184768
0.332669 -0.760875 -0.393161
-0.178089 -0.128545 -0.204623
0.553852 0.220659 -0.042217
0.267950 0.397402 0.257170
0.523223 0.301038 -0.083805
-0.272991 0.253806 -0.322039
-0.322054 -0.404068 0.138941
0.292701 -0.450919 0.101880
0.116466 -0.391376 0.080785
0.428512 0.147124 -0.171534
-0.430673 -0.104178 -0.178518
0.195516 -0.697226 0.041499
-0.526530 0.262169 -0.195373
0.132895 -0.611912 0.026759
0.572519 0.330548 -0.112873
0.260149 -0.551273 0.082658
-0.390767 -0.004697 -0.076659
-0.166725 -0.001329 0.216601
0.222833 -0.598743 0.123998
-0.197054 0.814376 -0.145613
0.102145 -0.376056 0.263851
-0.041789 -0.110246 0.182595
0.356357 0.335310 0.323459
-0.186683 0.346075 -0.021840
-0.258155 0.021248 0.148153
-0.262714 0.272822 0.079805
-0.067327 -0.121460 -0.110964
-0.239820 0.261099 0.070617
0.319468 0.026014 -0.087396
-0.160607 0.842343 -0.083335
0.016976 -0.398668 0.250316
-0.061365 -0.259359 0.176730
0.012850 0.121633 0.100363
0.048947 -0.020506 -0.175784
0.069661 -0.398245 0.297227
0.128979 0.602051 -0.003018
0.082807 0.297140 -0.319117
-0.203072 0.256689 -0.047193
0.235182 -0.574730 -0.245601
-0.209816 0.347871 -0.050673
0.017699 0.267653 -0.072078
0.284796 -0.947616 -0.160800
-0.069166 -0.101591 -0.199692
0.130448 -0.365388 0.028796
0.386524 0.270260 -0.195093
-0.247939 0.241563 -0.015146
-0.011272 0.443575 -0.044449
0.103151 -0.590283 -0.063989
-0.425311 0.564462 -0.053819
0.256876 -0.120044 0.187889
0.210655 0.414025 0.288597
-0.018361 -0.034117 -0.044626
-0.043954 0.067978 0.159238
-0.102468 0.830940 -0.004285
-0.383730 0.218204 0.041908
-0.054857 -0.136488 -0.153036
0.447649 0.083879 -0.152621
-0.030834 0.698875 -0.126697
-0.021579 -0.036962 -0.043550
-0.158329 0.677593 -0.166931
0.262043 -0.012507 0.075556
0.369252 0.329285 0.219475
0.224265 -0.325370 0.066142
0.274932 0.238481 0.121983
-0.392220 -0.060499 -0.057134
0.583188 0.167776 -0.013628
0.435549 -0.608601 -0.335668
-0.517320 0.416365 -0.100336
-0.163883 0.147803 0.167317
0.287781 -0.505506 0.095966
0.365967 0.098263 0.329085
-0.498600 0.304397 -0.210853
0.203590 0.363196 -0.320807
-0.167709 -0.001331 0.218373
0.066971 -0.181845 0.299064
-0.092799 -0.266482 0.215899
-0.318085 -0.130778 -0.048619
-0.370604 -0.116297 0.104383
0.235865 0.419790 0.071997
-0.041787 -0.412158 0.049199
0.103931 0.271025 0.144913
-0.352656 0.234725 -0.069611
0.129023 0.577344 -0.003107
0.175124 0.309552 -0.027611
-0.281056 -0.233561 0.052254
-0.065160 -0.308455 0.144834
0.124114 -0.633420 -0.042605
0.200919 -0.182689 0.131778
-0.324953 0.092317 0.126179
-0.072076 0.712590 -0.132094
-0.096881 0.766909 -0.143607
-0.036459 -0.382220 0.332246
-0.181550 -0.068617 -0.280349
0.150966 -0.524319 0.080428
-0.002218 0.668459 -0.128961
0.369848 0.208701 0.271315
-0.009920 -0.509906 0.122863
0.191220 0.390593 0.264859
0.184483 0.232682 0.012928
-0.473742 0.475920 -0.133483
0.025076 -0.305542 0.329448
0.390567 -0.890917 -0.364058
-0.001642 0.094399 0.107395
0.024668 -0.104674 0.268582
-0.338451 0.356016 -0.146689
-0.284527 0.204771 0.085189
0.122403 -0.473112 0.100065
0.202238 -0.075968 0.068513
-0.114999 -0.133083 0.178055
0.069564 -0.471771 0.095471
-0.464501 0.317530 0.018775
-0.529244 0.485093 -0.141636
0.045595 -0.113153 0.279259
-0.164014 -0.097899 0.137918
-0.274013 -0.287328 0.241768
0.030693 -0.338842 0.003721
-0.472049 0.551439 -0.084775
0.384115 0.334238 0.256500
0.073628 0.707878 0.048780
0.247757 -0.401567 0.071543
0.044004 0.203932 0.146161
-0.400501 0.330813 -0.223238
