0.347184 -0.258485 0.029454
-0.277936 -0.099854 0.137077
-0.439021 -0.394132 0.156564
0.087192 -0.046779 0.049794
0.545734 0.342016 0.266628
0.621094 -0.522755 -0.208507
-0.320905 0.281425 0.043324
-0.148265 -0.411814 0.166846
-0.144758 0.352120 0.273142
-0.704437 0.420868 0.100257
-0.636971 0.094418 -0.157551
-0.088226 -0.495229 0.029417
0.356196 -0.432238 0.041499
-0.324412 0.553799 0.066024
0.403970 0.294394 -0.470599
-0.194768 0.361206 0.205032
0.301391 0.329852 0.148206
0.490283 -0.713536 -0.108496
-0.491221 0.584331 -0.008168
-0.637648 -0.002454 -0.108881
0.289328 -0.443533 0.034644
-0.162482 -0.139482 0.176827
0.625228 0.180570 0.298930
0.174625 -0.462928 0.119049
0.030515 -0.265891 -0.054355
0.708614 -0.345912 -0.268437
0.718471 -0.556433 -0.203622
-0.447837 0.638555 0.023970
-0.601873 0.232882 -0.148798
0.668875 0.272700 -0.671611
0.179756 -0.452410 0.074399
0.044404 -0.157250 -0.218369
0.175126 -0.800435 -0.212496
0.087267 0.457661 0.279066
-0.360551 0.445335 -0.015813
-0.314721 -0.258093 0.090086
-0.474120 0.240281 -0.113618
-0.194707 -0.201908 0.144450
-0.095317 0.059419 -0.332278
0.503074 0.393860 -0.606173
0.289005 -0.824316 -0.193020
-0.070566 -0.079403 0.412784
-0.210261 -0.321759 -0.393025
0.071113 -0.057074 -0.344685
0.627057 -0.889462 -0.062755
0.333037 0.338499 -0.447105
0.212306 0.268310 0.174779
-0.130918 -0.631527 -0.315513
0.664400 -0.246326 -0.240451
-0.091284 -0.052564 -0.247807
0.063837 -0.845076 -0.200449
-0.621261 0.211249 -0.146321
0.401306 0.273948 -0.558585
-0.189725 0.327468 0.256173
-0.167091 -0.502953 -0.254924
-0.087660 -0.174034 0.405896
-0.162200 -0.274123 0.233458
0.319763 0.220835 0.096426
-0.127516 -0.527099 -0.305951
-0.616298 0.283909 -0.142580
0.058060 -0.156824 -0.187212
-0.119449 -0.392137 0.086028
0.413520 -0.297309 0.055838
0.329746 -0.204179 0.037917
-0.058352 -0.019534 0.275164
0.007133 -0.604656 0.124408
0.490860 0.484410 0.325585
-0.270147 0.252769 -0.169515
-0.133319 -0.324784 -0.025611
0.412321 0.434556 0.278442
0.440730 -0.178677 -0.461611
-0.164502 0.177087 -0.368905
-0.407170 0.640228 0.106311
0.188138 0.280977 0.200585
-0.067231 -0.536517 0.122206
0.371646 0.335005 0.166506
-0.608044 0.440503 0.099849
-0.305254 0.560940 0.122146
0.386347 0.748072 -0.144708
-0.151101 -0.135813 0.211149
-0.331792 0.006058 0.155612
0.226240 0.724684 -0.113689
0.063759 -0.049700 -0.388860
-0.145444 0.384076 0.288282
0.090363 0.611872 -0.030706
0.233706 -0.323234 -0.012128
-0.201711 -0.288939 0.095974
-0.714913 -0.079462 -0.096830
-0.855842 0.144444 -0.118383
0.309168 0.791024 -0.138555
0.004962 0.650552 -0.082742
-0.384754 -0.308567 0.165595
-0.146993 0.187685 0.266557
0.348385 0.336895 -0.460217
0.418105 0.176446 0.189007
-0.364922 0.244307 0.035229
-0.494863 0.118220 -0.080961
-0.104155 -0.566531 -0.350121
0.290171 -0.523849 0.118721
0.869387 -0.325839 -0.198562
-0.214108 0.354562 0.171034
-0.062405 -0.428890 0.391593
-0.118280 0.044045 0.231495
-0.645088 -0.077703 -0.089466
0.383573 -0.239934 0.066332
-0.253232 0.102584 0.169807
0.252096 0.250667 -0.335091
0.104824 -0.830503 -0.214333
0.696259 0.337939 -0.794035
-0.190815 -0.352767 0.079103
0.395946 0.223145 0.134984
-0.728490 0.424593 0.101380
0.294280 -0.194537 0.009459
0.483990 0.369317 -0.592151
0.338212 0.346469 -0.488541
0.278665 0.397422 0.179351
-0.617560 0.195028 -0.019502
-0.444963 -0.350420 0.070465
0.486549 -0.849750 -0.126584
-0.408271 0.645162 0.069954
-0.116367 -0.489992 0.094357
-0.086726 0.031664 0.274988
0.176490 0.110199 -0.332760
-0.106904 0.071133 -0.243639
-0.324357 0.493499 0.054676
-0.762226 -0.078345 -0.094336
-0.118884 -0.127730 -0.103034
0.474254 0.204042 0.207484
-0.727453 0.280582 0.021839
0.464269 0.079435 0.183267
0.446152 0.376440 -0.594249
-0.089166 0.052747 -0.341819
0.048756 -0.177662 -0.189621
0.215188 0.714830 -0.106794
-0.220749 -0.374182 -0.345042
-0.368503 0.602273 0.069580
-0.176392 0.204879 0.299474
0.281805 0.683503 -0.027310
-0.049281 -0.553324 0.201012
0.302753 0.305375 -0.381916
-0.077215 0.124176 0.323264
0.516424 0.487144 0.332159
0.349560 -0.133233 -0.478581
0.154311 0.179551 0.204722
0.299818 0.164913 0.119675
0.270254 0.199087 -0.078517
0.197225 0.140362 0.191113
-0.139635 0.075671 -0.309053
-0.654021 0.170753 -0.152872
-0.151658 0.287070 0.325347
-0.175155 0.161223 -0.382444
0.535108 0.200127 0.234915
0.474483 0.089712 0.182713
-0.496983 0.224733 -0.125249
-0.507641 0.216991 -0.057873
-0.053252 0.092939 0.399023
-0.271966 0.212024 0.098291
-0.307959 0.325208 0.035636
0.012182 -0.032094 0.065992
-0.112729 -0.530578 0.120402
0.254116 -0.811538 -0.205798
-0.323377 -0.395400 0.017974
0.103245 0.720616 -0.101612
-0.174854 0.143000 0.218726
-0.146213 0.189781 0.289330
-0.662318 0.218403 -0.150236
-0.187611 0.371080 0.229875
0.372265 0.643351 -0.036231
-0.539268 0.618224 0.046246
-0.120874 0.216131 -0.416630
0.213265 0.126557 -0.128835
-0.019686 -0.392883 0.436841
-0.744142 0.370260 0.058386
0.426396 0.214483 -0.365291
-0.110264 0.207141 0.325717
0.085062 0.319672 -0.384866
-0.072545 -0.122402 -0.242900
0.296182 -0.387333 0.010735
0.357173 -0.772083 -0.175184
-0.105554 -0.546506 0.117350
-0.542365 -0.010474 -0.089264
-0.078846 0.152995 0.338503
0.387010 0.370735 0.225379
-0.545290 -0.404535 0.093872
-0.069754 -0.204805 0.175207
0.570968 0.286215 0.305071
0.367274 -0.341191 0.025556
-0.127286 -0.239664 0.007132
-0.142474 -0.146185 0.321733
0.516072 0.254205 0.231553
-0.323095 0.321837 0.010913
0.079739 -0.576413 0.100893
-0.591820 0.095272 -0.215686
0.009191 0.087124 0.182149
0.149217 0.118499 -0.401595
0.262289 0.640013 -0.013039
-0.144544 -0.236229 0.156197
0.098778 0.004167 0.078537
-0.071922 -0.290913 -0.003852
-0.848360 0.225941 -0.140998
0.001360 -0.066983 0.049475
-0.098416 -0.241779 0.120038
-0.727011 -0.050827 -0.100439
-0.326423 -0.229197 0.098633
-0.135832 -0.448547 0.090939
-0.111769 -0.484062 0.081435
0.291715 -0.846812 -0.190853
-0.401276 0.652804 0.085367
-0.103140 -0.146399 0.209812
0.392367 0.812650 -0.219003
-0.170397 -0.214619 0.200832
0.418855 0.276145 -0.442241
-0.116084 -0.094988 0.376671
0.431490 -0.874318 -0.149912
-0.070216 -0.446469 0.392227
-0.380911 0.442652 -0.014898
0.226986 0.789734 -0.137315
0.478524 -0.205663 -0.446584
-0.666678 0.256208 -0.018062
-0.445657 0.387055 -0.022193
0.317858 -0.453440 0.044241
-0.507610 -0.424149 0.102548
-0.480117 0.265519 -0.121662
0.534140 0.047310 0.216452
0.466176 -0.038640 0.229237
0.040156 -0.148834 0.528620
0.380584 0.172748 0.127088
-0.199821 -0.336690 0.082388
-0.000388 -0.303897 0.478552
0.170781 0.650711 -0.192477
-0.396672 0.550942 0.006888
0.038622 -0.578630 0.101827
-0.016137 -0.120628 0.035495
-0.825225 0.291437 -0.156839
0.027270 -0.252548 -0.026087
-0.248313 -0.436815 -0.272341
0.125084 0.738600 -0.123573
-0.347185 0.481180 0.046203
-0.431769 0.628344 0.039472
0.425496 -0.864630 -0.146643
-0.391350 0.515927 0.000964
0.149230 -0.455204 0.110229
0.077311 0.014424 0.091728
-0.356791 0.161075 0.151407
-0.026444 -0.088234 0.060641
-0.431160 0.150400 0.009091
-0.316430 0.091555 0.178609
0.211661 0.833947 -0.154175
-0.250280 0.382492 0.111550
0.095155 -0.873962 -0.188811
0.355032 0.241106 0.110644
0.193385 -0.262715 -0.031552
-0.464879 0.383046 0.071125
-0.518684 0.063512 -0.290946
0.048999 -0.170104 -0.164502
-0.003561 -0.194650 -0.011733
0.418810 0.282182 -0.455015
-0.158046 -0.214412 0.222553
-0.223158 0.452836 0.175535
-0.091142 -0.025542 0.289009
0.197064 0.149869 -0.214161
0.806548 -0.574229 -0.204453
-0.086544 0.043703 -0.319581
0.401453 0.223159 0.141127
0.416841 0.267418 0.145994
0.719642 -0.304666 -0.250089
-0.357527 0.515463 0.014190
-0.624671 0.037923 -0.127623
-0.128563 -0.111078 -0.074626
0.239237 0.248926 0.141452
0.374664 0.125237 0.116376
-0.681288 0.387032 0.023345
-0.139234 -0.425864 0.112690
-0.071122 -0.161590 0.411411
0.121899 -0.406497 0.109987
0.124894 0.431737 0.288143
0.179361 -0.061337 0.056506
0.669292 -0.473520 -0.219732
0.106669 -0.940308 -0.176218
0.346444 -0.782971 -0.107272
0.180798 -0.068024 -0.464993
-0.713646 -0.000863 -0.114001
-0.689060 -0.051654 -0.099340
-0.208877 0.313094 0.159111
0.461006 0.376201 0.261508
0.010044 -0.172522 0.002222
-0.103209 -0.143309 0.206587
-0.402877 -0.515113 -0.328833
0.332422 0.314440 -0.370699
0.383561 0.763649 -0.157598
-0.127192 -0.443610 0.321318
-0.301494 0.299147 -0.134718
-0.258868 -0.265216 0.062555
-0.291171 -0.367712 0.016503
-0.303760 0.541460 0.100388
-0.075432 -0.194626 0.342716
0.132870 0.247477 -0.314567
-0.177859 0.430379 0.206152
0.192788 0.840650 -0.156045
0.249238 -0.757567 -0.199710
-0.243695 0.229456 0.199983
0.486614 -0.279964 -0.226999
-0.134306 -0.185898 0.249614
-0.264421 0.468892 0.148085
0.384945 0.161433 -0.376647
-0.172309 -0.082632 0.165296
-0.059036 -0.301914 0.366620
-0.548122 0.441493 0.094711
-0.258264 0.325043 0.078275
0.336510 0.578397 0.275068
-0.533888 0.140111 -0.130630
-0.217996 0.221317 -0.246844
-0.736564 -0.056885 -0.098224
0.032071 -0.600415 0.110421
-0.039436 -0.023560 0.113413
0.082473 0.295863 0.246408
-0.111092 -0.516877 0.022057
-0.122511 0.026041 -0.330672
-0.634585 -0.024362 -0.096173
0.453282 0.418007 0.286149
-0.659894 0.035283 -0.139691
0.418553 0.251896 0.171562
-0.784256 0.086109 -0.111330
0.164003 -0.377789 0.022337
0.153216 0.483721 -0.219220
0.237082 -0.310719 -0.014442
0.012425 -0.307563 0.468729
-0.144350 -0.158692 0.303096
0.346046 0.100871 0.128735
-0.709884 0.264100 0.008992
-0.028830 -0.343185 0.388651
0.310650 0.092800 0.156382
0.003595 -0.322520 0.497790
-0.187135 0.256999 0.216511
0.277877 0.146863 0.138521
0.400882 -0.841852 -0.142027
-0.720361 -0.028977 -0.105973
0.593911 0.211829 -0.599596
-0.487251 -0.264859 0.038267
0.566115 0.312425 -0.651623
-0.050128 -0.382535 0.445124
0.096182 -0.222701 -0.035609
-0.339905 0.497650 0.083544
-0.102569 -0.236392 0.085284
0.720862 0.268368 -0.771211
-0.098026 -0.546796 0.155045
-0.365181 -0.268237 0.151443
-0.104030 -0.572851 -0.349989
0.342941 -0.825729 -0.185948
0.358849 0.169670 0.108896
-0.569040 0.453741 0.123581
0.440667 -0.053779 0.233327
0.117325 -0.098221 0.040787
0.283802 0.365395 0.165503
0.310052 0.208773 0.110370
0.270587 0.361060 -0.439231
-0.233178 0.238526 -0.233639
0.311055 0.029955 0.173045
-0.232863 0.253139 0.139057
0.405403 0.348164 0.223775
-0.152131 -0.343780 0.237790
-0.148256 0.027670 -0.247676
0.148514 0.587768 -0.203039
0.310380 -0.066916 0.221789
-0.027284 -0.347627 0.048827
-0.535673 0.560296 0.003083
0.448645 -0.731649 -0.112287
0.183593 -0.060550 -0.471568
0.354800 0.184643 0.067611
-0.064018 -0.178056 0.104898
-0.664514 0.133190 -0.157229
0.217918 0.616031 0.000682
-0.456491 -0.357800 0.153191
-0.137767 0.356524 0.336043
-0.213808 0.372593 0.129540
0.496762 -0.286235 -0.214546
-0.689918 0.442838 0.108056
0.412083 0.043187 0.159404
-0.065917 -0.114976 0.097279
0.256468 0.477783 0.217696
-0.224506 0.478912 0.209790
0.660230 -0.596496 -0.216410
-0.481071 -0.286866 0.049679
0.732557 -0.613906 -0.215772
-0.135910 -0.140301 0.308747
-0.177568 0.420685 0.196867
0.293858 -0.072797 -0.484734
-0.053339 -0.123127 0.453523
0.458351 0.222990 0.190846
0.466237 -0.776522 -0.122774
0.373510 0.215003 -0.395188
0.041429 -0.077900 0.025360
0.180188 0.641887 -0.011546
0.230043 0.783375 -0.135974
-0.102322 0.156339 -0.386502
-0.059237 -0.109820 -0.374067
-0.164104 -0.245456 0.144389
-0.481061 0.504650 -0.028114
-0.138486 -0.438375 0.119257
0.347922 0.267988 0.113458
0.247709 0.561499 0.278341
0.402829 -0.880049 -0.152300
-0.092088 -0.323344 0.080563
-0.536201 -0.169353 0.020207
0.621277 0.149013 0.297058
0.461787 0.324793 0.224455
0.055461 0.025741 -0.415504
-0.311132 0.320180 -0.017892
-0.146884 -0.132133 -0.045124
0.237904 0.154443 -0.127079
0.354365 0.681800 -0.030714
-0.453742 0.152404 -0.006463
0.157987 -0.869396 -0.204313
0.613929 0.098908 0.301250
-0.741308 0.059384 -0.132838
0.420796 0.261404 0.175006
-0.340026 0.237268 0.028021
-0.343973 -0.467843 -0.275596
0.208387 -0.740946 -0.204060
0.556956 -0.094133 0.241322
0.140372 -0.429015 0.110837
-0.115595 -0.658224 -0.363579
-0.853393 0.106578 -0.113301
0.838019 -0.457776 -0.194326
-0.491790 0.568403 -0.014402
-0.166408 -0.216410 0.150161
-0.076517 -0.125978 -0.265569
-0.416920 -0.285680 0.077639
0.070433 -0.111132 -0.302403
0.409648 -0.765728 -0.120801
-0.130386 -0.415825 0.004704
0.616223 0.279675 0.340809
-0.378274 0.328662 -0.047495
0.375313 -0.134059 -0.463597
-0.367474 -0.271061 0.164223
0.442158 0.462837 0.301192
-0.247938 -0.212854 -0.365690
0.010871 0.100640 -0.267085
-0.220963 0.475741 0.212904
0.159346 0.489207 -0.255011
-0.586563 -0.313330 0.032312
0.463625 -0.183405 0.254117
0.396815 0.183127 0.173752
0.180792 0.106791 -0.197638
-0.764506 0.135975 -0.122875
0.697810 -0.464772 -0.223940
0.167342 -0.875912 -0.203639
0.610403 -0.307361 -0.401153
-0.714184 0.340226 0.017093
-0.132038 -0.273835 0.276724
-0.824194 0.143769 -0.116791
-0.868794 0.128967 -0.116812
-0.507679 0.409242 -0.000750
0.848330 -0.420113 -0.195695
-0.639894 -0.119024 -0.094843
-0.062003 -0.196141 0.146317
0.145975 -0.822042 -0.218729
0.539617 -0.755910 -0.116731
-0.759520 0.057191 -0.107733
0.129859 0.288574 0.250641
0.630808 -0.618283 -0.230950
-0.078517 -0.245139 0.053075
-0.373448 0.621842 0.088287
-0.406172 -0.184380 0.044016
0.658067 -0.757328 -0.061094
-0.293676 -0.170047 0.091340
-0.255293 0.512836 0.203742
0.211781 -0.482333 0.108771
0.362443 0.223863 -0.371799
0.397543 0.143907 0.126265
-0.535027 -0.390386 0.030008
-0.282614 0.461296 0.079296
-0.030548 -0.129485 0.049019
0.459790 -0.887487 -0.145123
0.318872 -0.098422 -0.474885
0.052508 0.662530 -0.064683
0.140252 -0.502791 0.061843
-0.057926 -0.192921 0.436944
0.105247 0.418773 -0.313789
-0.381968 0.646267 0.100684
0.086928 -0.513772 0.082730
0.541533 0.286194 0.274494
0.203739 0.224723 -0.257086
0.386205 -0.087283 0.235047
-0.534895 0.413215 0.034826
-0.582566 0.436454 0.108589
-0.256027 0.016757 0.144657
0.007437 -0.276585 0.009852
-0.378132 -0.114693 0.079409
0.337831 0.560272 -0.075827
0.720464 0.253497 -0.729783
0.605117 -0.617989 -0.243631
0.343204 -0.816224 -0.184599
0.832811 -0.400912 -0.200598
-0.145496 0.077307 -0.394249
0.464494 -0.728859 -0.112963
-0.095239 -0.061667 -0.234837
-0.210426 -0.162548 0.118826
-0.122206 -0.479184 0.148055
0.103174 0.761005 -0.132904
0.014431 0.123918 -0.305637
0.228828 -0.956217 -0.199927
0.142415 -0.837788 -0.219779
-0.146276 -0.155925 0.306261
0.544107 0.143609 0.260507
0.629267 0.354528 -0.684236
0.279725 0.582595 -0.019359
-0.362189 0.592720 0.072741
-0.060430 -0.027492 0.199535
-0.348606 0.047843 -0.397585
0.049699 0.737484 -0.107670
0.075386 0.068244 -0.331717
-0.559753 0.449924 0.120199
-0.121336 -0.372055 -0.007493
0.693508 -0.294510 -0.246083
-0.156777 -0.121850 0.264775
-0.068156 -0.044585 0.133770
-0.115768 0.044057 0.234573
0.529739 0.159722 -0.591532
0.092264 0.371032 -0.341950
-0.538669 0.431529 0.100939
-0.356929 -0.267865 0.176455
-0.072475 -0.149396 -0.319666
0.598787 -0.816925 -0.100612
0.132991 0.494978 0.297841
0.379962 0.706328 -0.038798
0.273410 -0.817962 -0.191022
0.317456 0.558243 -0.081470
0.100959 -0.899328 -0.186659
-0.064244 0.100223 0.396064
0.221240 0.262380 0.161970
-0.310657 -0.556666 -0.256992
-0.224781 -0.508437 -0.275468
0.176502 0.564445 -0.228740
0.043850 -0.177039 -0.024657
0.210889 -0.388519 0.013478
-0.154988 -0.230629 0.206996
0.364618 0.059755 0.146024
-0.321184 0.417121 0.034089
0.065515 0.749583 -0.116100
-0.191158 -0.256780 -0.436143
0.170397 0.631626 -0.198376
0.263932 0.278579 -0.291822
-0.339277 0.411010 0.025327
0.345595 -0.844796 -0.187985
-0.003199 -0.218332 0.486284
-0.016331 -0.177350 0.463702
-0.695481 -0.054690 -0.100231
-0.047374 0.036234 0.377924
0.145955 0.118358 -0.404646
-0.071336 -0.216974 0.336742
0.186331 0.862474 -0.175942
-0.074798 -0.191365 -0.361713
-0.293043 0.294954 -0.125419
0.697160 -0.629102 -0.224216
0.249909 0.129147 0.166297
0.550291 0.362313 0.295444
0.293050 0.188433 -0.009485
-0.150422 -0.083387 0.295351
-0.070202 -0.052044 0.222511
-0.109586 0.044054 0.240694
0.294175 0.537804 -0.029320
-0.633239 0.343810 -0.024294
-0.163547 -0.306806 0.183627
0.299728 0.199778 -0.301645
0.034903 -0.224796 0.518216
0.374724 0.790763 -0.164216
-0.188538 0.383666 0.226473
-0.205139 -0.362591 -0.376506
0.062647 0.360081 0.271811
0.179499 -0.191782 -0.022880
-0.088383 0.009976 -0.228918
0.371207 0.090897 0.131898
0.647792 0.174148 0.317092
0.500776 -0.789887 -0.120469
-0.344054 -0.315504 0.202350
-0.161329 -0.267034 0.147925
-0.144323 -0.425011 0.003918
-0.170020 -0.222452 -0.434411
-0.336293 0.330352 -0.045741
-0.034796 -0.575290 0.175723
0.297059 0.365145 -0.405410
0.528345 0.464613 0.325836
-0.106477 -0.389536 0.073957
-0.513516 -0.314712 0.043820
-0.190144 0.409255 0.238619
0.127071 0.396802 0.282682
0.113067 -0.751613 -0.211388
0.329751 0.142187 -0.407997
0.331800 -0.136303 0.249674
-0.082814 -0.025948 -0.321364
0.123564 -0.319284 0.000659
0.551883 -0.242964 -0.202775
-0.067664 -0.079836 0.112385
0.032915 0.048077 -0.428598
-0.441746 0.623979 0.027246
0.680616 -0.335653 -0.261725
0.188284 0.196918 0.167288
0.502142 0.301623 0.218086
-0.503385 0.405573 0.037123
0.312180 0.629110 -0.026637
-0.392958 0.208838 -0.024670
0.595307 0.130460 0.289260
-0.145603 -0.085328 0.213044
0.741235 -0.330392 -0.248248
-0.167541 -0.220791 0.210355
0.380842 0.668110 -0.051132
-0.035897 -0.601738 0.160522
-0.635140 0.431202 0.050355
0.124616 -0.403188 0.119395
0.525498 0.308165 0.251553
0.353972 0.370338 0.174280
0.572424 -0.104036 0.237924
0.590610 0.409706 0.335506
0.655834 0.224910 0.334039
0.560088 0.362276 0.303657
-0.608831 0.441583 0.074562
0.294777 0.409717 0.179998
0.317715 0.076695 0.149880
0.492969 -0.846715 -0.125753
-0.043119 0.103260 0.411796
0.276297 0.324318 0.158285
0.545182 0.218970 0.239701
-0.259234 0.400948 0.079833
-0.087534 0.039519 -0.224623
-0.297324 -0.361239 0.017140
0.030735 -0.459169 0.065498
-0.171338 0.273061 0.244100
0.285296 -0.283247 -0.009484
-0.097598 -0.175731 0.175490
-0.147456 -0.079179 0.203489
-0.494990 0.319363 -0.131372
-0.388183 0.414171 -0.023934
-0.229164 0.335324 0.143488
0.130028 -0.828007 -0.218812
-0.526834 0.189267 -0.044926
0.015034 -0.038590 0.061028
-0.352408 -0.407842 -0.286168
-0.419579 -0.304167 0.106574
0.481195 -0.700623 -0.105463
0.001009 -0.238038 0.031360
0.187825 0.144319 0.190893
-0.124472 -0.101463 0.361278
0.079823 0.001483 0.080838
0.251747 -0.392694 0.009071
-0.043380 -0.590418 0.116266
0.085876 -0.171111 0.000014
0.088847 -0.245003 -0.051054
-0.125318 0.165862 0.301808
0.154610 0.825774 -0.152912
0.484820 -0.208931 -0.445064
-0.100322 0.144297 0.352036
-0.556943 -0.266530 0.034968
0.173013 -0.910696 -0.198845
-0.154893 0.153592 -0.420875
-0.186495 -0.069854 0.157144
0.279217 0.187511 -0.021659
0.266622 0.185179 -0.296544
-0.247312 -0.296210 0.149337
-0.595899 0.449537 0.077771
-0.506098 0.250069 -0.132025
0.373270 0.290374 0.150829
-0.354970 0.567071 0.063574
-0.563428 0.440419 0.111040
-0.068052 0.029973 0.359767
-0.252577 0.223002 -0.191576
-0.568221 0.439951 0.060627
-0.363571 -0.283830 0.162431
0.379370 0.539172 0.259825
-0.494285 0.193253 -0.116997
-0.227123 0.449487 0.163091
-0.015147 -0.621479 0.131820
0.725102 -0.543927 -0.203040
0.136744 -0.068683 -0.458208
-0.076100 -0.396706 0.350252
0.201636 0.042536 0.202076
0.266923 0.570329 -0.015397
0.340577 0.204929 -0.313052
-0.598884 0.162465 -0.005103
0.073230 -0.588839 0.104015
-0.449087 0.664792 0.064541
0.085557 0.044912 -0.375803
0.135946 0.077649 -0.416087
0.437991 -0.969810 -0.173947
0.405588 -0.354221 0.046726
-0.459143 -0.372618 0.194692
-0.077076 0.134564 0.364131
0.553427 0.342914 0.279002
0.276406 -0.824362 -0.191549
-0.260648 0.487287 0.153888
0.449921 -0.693481 -0.100080
0.046463 -0.189912 -0.032435
0.058167 -0.018897 -0.430437
0.008781 -0.263840 0.015856
-0.193102 0.285074 0.193972
-0.433146 -0.034429 0.080375
-0.157413 -0.592283 -0.282923
-0.253250 -0.201332 0.146349
-0.070900 0.109221 0.367637
0.177306 -0.173297 -0.006064
-0.398690 0.265356 -0.046978
-0.463544 0.172363 -0.030708
-0.059268 -0.140682 0.084975
0.183201 0.104019 -0.219043
0.034384 -0.174030 -0.182908
-0.149523 -0.111838 0.295934
-0.115352 -0.367580 0.341422
-0.416457 -0.027974 0.103187
-0.620604 0.179637 -0.004764
0.020263 0.087935 -0.260796
0.173849 -0.461353 0.093751
0.051136 -0.094751 -0.295804
-0.149142 -0.103847 0.229364
-0.064930 -0.016396 0.409460
-0.169785 -0.240478 0.151929
0.322588 0.252326 0.076688
0.176154 0.272897 -0.264822
0.369238 0.452815 0.203494
-0.019156 0.014973 -0.406514
0.442162 0.099621 0.169397
0.682157 -0.439438 -0.237421
0.000001 -0.559583 0.066782
-0.252639 -0.273789 0.157373
0.558866 -0.882719 -0.115047
0.104360 0.495487 0.291883
-0.163255 0.279824 0.272141
-0.396862 -0.351715 0.060732
0.320599 0.852154 -0.220339
0.548360 0.231821 0.230981
-0.060171 -0.190780 0.105046
0.897950 -0.317061 -0.201404
-0.350437 0.368937 -0.030304
-0.150953 -0.421964 -0.007841
0.532500 0.080208 0.240107
0.165866 0.278066 0.198213
0.308941 0.284820 0.120463
-0.490885 0.654222 0.050327
-0.521957 0.259715 -0.140619
-0.031320 -0.066057 0.483922
0.313270 0.338168 -0.471743
-0.101636 -0.163072 0.172188
-0.193860 -0.362197 -0.205552
-0.661241 -0.099357 -0.084680
0.379068 0.409287 0.245596
0.904869 -0.437162 -0.194740
-0.103586 -0.136983 0.206463
-0.023874 -0.011354 0.109524
0.006377 -0.559687 0.068512
-0.027537 -0.291806 0.000745
0.060173 0.044044 0.127335
0.077631 -0.071078 -0.341435
0.404448 0.255439 0.162462
0.685191 -0.609714 -0.217140
-0.373034 -0.063717 0.102976
-0.669676 -0.002030 -0.122124
0.649093 -0.741416 -0.065174
0.603284 0.295530 -0.663300
-0.149112 -0.275512 0.042335
0.585714 -0.823150 -0.109457
0.157442 -0.897750 -0.200851
-0.114707 -0.373223 0.088627
-0.174930 -0.224250 0.087385
0.222076 -0.703210 -0.198728
-0.105673 -0.249989 0.096847
0.090922 -0.958138 -0.161544
-0.346245 -0.420529 -0.281999
-0.164307 -0.309321 0.069903
-0.432296 0.637039 0.115170
0.055741 -0.042494 -0.357142
0.259054 0.159267 -0.033037
0.359697 -0.404089 0.031821
-0.155172 -0.164570 0.192935
-0.276647 -0.310762 0.033977
-0.102519 -0.268771 0.108108
-0.291704 0.315918 0.060596
0.018465 -0.393323 0.029752
0.252823 0.247632 -0.328728
-0.373586 0.619803 0.142076
0.125838 0.421301 -0.265099
-0.243706 -0.128296 -0.396099
-0.338948 -0.268140 0.182196
-0.747468 0.047189 -0.118978
-0.181070 -0.640915 -0.361814
-0.091613 -0.392274 0.391758
-0.117723 0.012210 -0.204082
-0.213933 0.360805 0.167732
-0.678243 0.294526 -0.012050
-0.710615 -0.007240 -0.113469
-0.248123 -0.043595 0.138936
0.637886 0.380571 0.352044
0.367787 -0.036734 0.215752
-0.085079 -0.340493 0.310988
-0.337752 0.327157 -0.048785
0.161445 0.542682 -0.227780
-0.192765 0.428551 0.250934
0.169659 0.169568 0.197624
-0.176498 -0.294999 -0.008822
0.175043 0.576974 -0.235285
-0.156413 -0.566740 -0.270208
-0.213803 0.136947 0.191541
-0.098471 0.184719 -0.385465
-0.472222 0.587044 -0.009149
-0.481280 0.495174 -0.028113
0.585234 0.111618 0.284500
0.151348 -0.188732 -0.015746
0.004744 -0.247438 0.464523
0.572800 -0.262679 -0.423017
0.028375 -0.263005 0.498860
-0.586671 0.336935 -0.144174
-0.490241 -0.361670 0.113280
-0.642244 0.446336 0.113485
-0.255143 0.134583 0.185668
0.245891 0.257690 0.145461
-0.020417 -0.445988 0.038218
-0.060293 -0.009520 0.297141
-0.542960 0.065625 -0.260899
0.011269 -0.267198 0.009525
0.621409 0.352483 0.351385
0.057187 -0.129356 -0.282611
0.518970 0.320611 0.236186
0.346498 0.195193 -0.318525
0.402429 0.174441 0.157950
0.834307 -0.328384 -0.206279
0.127056 0.381240 0.293440
-0.518945 -0.392342 0.127522
-0.160219 0.329240 0.223560
0.623758 -0.788826 -0.090907
0.009557 -0.096036 0.030344
-0.191746 0.037831 0.162338
0.711232 -0.269533 -0.241973
0.014367 0.121515 -0.271707
0.614647 0.238199 0.321641
-0.316865 -0.547119 -0.260303
-0.113669 -0.125043 -0.119068
0.077722 -0.013173 -0.437521
0.022369 -0.176123 -0.005158
-0.042189 -0.142110 0.463787
-0.152020 0.154533 -0.357765
0.003855 0.075836 0.220989
-0.157661 -0.137357 -0.006725
0.553122 0.048094 0.237944
-0.529469 0.209302 -0.141316
0.365343 0.240533 -0.392310
0.155325 0.118473 -0.408253
-0.579926 0.027936 -0.105272
0.240035 -0.519329 0.129277
0.416620 -0.172754 0.259316
-0.379288 -0.377937 0.036275
-0.320270 0.528433 0.066435
-0.377640 0.535014 0.020352
-0.507691 0.435894 -0.020300
0.240239 0.674769 -0.035622
-0.048086 -0.049427 -0.347281
-0.076021 -0.175204 -0.346822
-0.179940 0.368869 0.280252
-0.018006 -0.496321 0.051114
0.145722 -0.101994 0.041842
-0.468281 -0.417944 0.148548
0.064573 0.288118 -0.403272
-0.139109 -0.169712 0.262067
0.050814 -0.054005 -0.388345
0.267669 0.595705 -0.010463
-0.314310 0.593582 0.159673
-0.170871 0.158872 -0.357243
0.367279 0.265356 -0.410989
-0.165305 0.181385 0.249039
0.206571 0.146282 0.182563
-0.383182 -0.349176 0.188547
0.163500 0.281715 0.220340
-0.306278 0.011869 0.158388
-0.390410 -0.194090 0.049625
-0.094131 -0.103854 0.284470
-0.175757 0.369968 0.333832
-0.751303 0.182721 -0.139185
-0.531768 0.480799 -0.014912
-0.351994 0.053983 -0.409072
0.296719 0.090373 0.175282
-0.567442 0.406321 0.010724
0.231827 0.287829 0.177962
0.140635 -0.982045 -0.171310
0.279864 0.204467 -0.037851
0.251322 0.333924 -0.428938
-0.449901 0.478770 -0.023564
0.346919 -0.110212 -0.478990
-0.192662 0.309983 0.177616
0.205504 0.653788 -0.019302
-0.187845 -0.191142 0.153478
0.248107 0.561516 -0.004348
0.105151 0.023526 -0.452316
0.320525 0.042178 0.163802
0.227080 -0.499682 0.105484
-0.300527 -0.228333 0.116861
0.655604 -0.338022 -0.251366
-0.064119 -0.002058 0.344523
-0.176143 0.348642 0.227284
-0.734231 0.059743 -0.109600
0.144972 0.198519 0.195560
-0.056145 -0.202805 0.136786
-0.175428 0.213208 0.248679
-0.225541 0.079681 0.162641
-0.011807 -0.508983 0.056405
-0.087751 -0.555441 0.164379
-0.207524 -0.066603 0.140045
-0.715393 0.295881 0.011419
-0.529190 -0.376979 0.092753
-0.108262 -0.102916 -0.113399
0.557723 0.218622 0.236700
0.873073 -0.297568 -0.202610
-0.008645 -0.339649 0.425851
0.340859 -0.784511 -0.182030
-0.548429 0.219057 -0.148111
0.355011 -0.318887 0.021395
0.352926 0.163309 0.101111
-0.135232 -0.453119 0.170048
-0.463704 -0.363704 0.153553
0.307836 0.542812 -0.074501
0.051776 0.103397 -0.338026
-0.719307 0.200939 -0.140357
0.117552 -0.248575 -0.040604
-0.801776 0.168355 -0.125517
-0.650532 0.379549 0.002079
0.316611 0.324979 -0.481051
0.523237 0.009977 0.199184
-0.708135 -0.048196 -0.105174
-0.250612 -0.381415 0.009678
0.050348 0.040676 -0.317662
-0.343683 0.314377 -0.060961
0.409912 0.197522 -0.433934
-0.241960 0.220339 -0.207671
-0.287271 -0.339300 0.019036
-0.240103 0.022706 0.144010
-0.304197 0.501038 0.129724
-0.234780 -0.144612 0.135041
0.149847 0.719030 -0.125895
-0.587758 0.089759 -0.196733
-0.069725 -0.027481 0.332608
0.272965 0.228805 0.123387
0.486394 0.302010 0.219592
0.125500 -0.200984 -0.024280
0.378853 -0.844409 -0.137076
0.756274 -0.384125 -0.233426
-0.072397 -0.309889 -0.004979
0.472076 -0.690842 -0.101161
0.118814 0.723221 -0.110874
0.261373 -0.386588 0.009111
0.285722 0.342733 0.143211
-0.698591 0.149751 -0.147470
0.245636 0.180389 -0.298594
-0.598376 0.440115 0.105865
-0.858801 0.279611 -0.154041
-0.435697 -0.243560 0.053223
0.780542 -0.602137 -0.206626
-0.097916 0.046691 -0.431996
0.205103 0.517863 0.262773
-0.589639 0.447954 0.076960
0.393297 0.115267 0.113151
-0.089875 -0.101749 0.383283
0.617934 -0.618155 -0.238156
0.023938 0.072324 0.159858
0.210979 -0.755999 -0.210912
0.019446 -0.562981 0.075690
-0.134143 -0.349864 0.266531
-0.761010 0.387366 0.099947
0.256747 -0.276462 -0.017394
-0.530784 -0.216747 0.026146
-0.604496 0.420182 0.028160
0.410244 -0.303536 0.056750
0.159402 -0.070486 0.051336
0.386925 -0.258830 0.053985
0.350368 0.220475 -0.314688
0.360260 0.629836 -0.087570
-0.204827 0.031602 0.153258
0.246987 0.474884 0.219895
-0.152667 -0.247673 0.153547
-0.370073 0.388302 -0.032003
-0.380992 -0.309035 0.228706
0.165818 -0.068151 -0.439212
0.310541 0.492369 0.217535
0.002719 -0.167506 0.503964
0.604078 -0.883066 -0.085107
0.064727 -0.171855 -0.196590
-0.000911 -0.408726 0.028151
0.337384 0.808903 -0.158767
-0.138995 -0.207831 0.253401
0.707141 -0.763689 -0.013487
-0.063279 0.023123 0.340792
0.634686 -0.599217 -0.222366
-0.319858 -0.382791 0.020042
0.337534 0.208187 -0.311724
0.113160 -0.921674 -0.184413
-0.523082 0.206095 -0.137004
-0.139329 -0.400309 0.124787
0.491378 -0.333704 -0.222836
0.271526 0.823159 -0.152597
-0.199568 -0.607323 -0.305032
-0.255764 -0.333846 0.011839
0.252834 0.157388 -0.058083
-0.698686 0.409386 0.056060
0.294365 0.181335 0.000108
-0.097848 -0.427635 0.074804
-0.629300 0.258114 -0.036764
-0.263928 0.262138 0.086136
-0.171076 0.426649 0.329297
-0.134754 -0.428275 0.008928
-0.755382 0.294409 0.046929
-0.143579 0.153744 -0.389636
-0.269385 0.530210 0.197505
0.367888 0.374162 0.218106
0.154231 -0.903934 -0.197956
0.185149 0.557112 0.302191
-0.194283 0.322866 0.186875
-0.458506 -0.369615 0.188284
0.066100 0.426352 0.270983
-0.618342 0.321087 -0.036236
0.530235 0.381427 0.282091
0.454418 -0.747703 -0.117827
0.527477 0.106089 0.261903
-0.266205 0.232080 0.153243
-0.126419 0.175012 0.285841
-0.358715 -0.422999 0.020301
-0.310374 0.085019 0.175019
-0.143969 -0.567151 -0.276152
-0.411979 -0.387219 0.206112
-0.160708 -0.453038 0.006103
-0.137751 -0.108177 0.330244
-0.125689 -0.230251 0.253449
0.646969 0.247301 0.337159
0.407607 -0.930976 -0.163695
-0.086171 -0.565447 0.142414
0.498969 0.192080 -0.588612
-0.583536 0.329673 -0.041395
0.343883 -0.261618 0.027346
-0.716205 0.058703 -0.138163
0.781480 -0.248832 -0.235092
-0.254722 -0.265975 -0.345357
0.395959 0.292954 -0.561981
0.390755 0.812617 -0.222111
-0.124887 -0.406458 0.005130
0.249150 -0.510340 0.111316
0.407550 -0.147388 0.253911
0.448055 0.092978 0.160834
-0.200595 -0.278899 0.016692
0.180109 0.102820 -0.234722
0.262421 0.103896 0.180335
-0.194425 -0.299007 0.076986
0.320112 -0.717791 -0.187077
-0.410465 0.633835 0.108204
0.169597 0.351136 0.261689
-0.303574 0.309524 0.045314
0.219123 0.167940 0.164073
0.493838 0.416006 -0.614427
-0.093500 -0.554162 0.104476
0.619002 0.190104 0.295053
0.607081 -0.305715 -0.410564
0.615969 0.280264 -0.651080
-0.141567 0.400625 0.325733
-0.159808 0.424840 0.259422
-0.352093 -0.278691 0.220787
-0.139439 -0.354093 0.104828
0.067554 -0.829227 -0.194560
-0.152595 0.029163 -0.187503
-0.010876 -0.205519 0.486259
-0.117854 -0.342562 -0.240694
-0.643948 0.038137 -0.137393
-0.567181 0.052606 -0.119929
-0.526510 0.433072 0.084704
-0.658221 0.451592 0.104410
-0.113273 0.123988 -0.431080
-0.346348 0.430057 0.021987
0.298984 -0.415634 0.019934
0.149987 0.728454 -0.128308
0.389378 -0.087345 0.235436
0.282539 -0.019228 0.206429
-0.093454 -0.572130 0.118830
0.800814 -0.406689 -0.208391
0.191742 0.221928 0.158531
-0.361083 -0.515011 -0.282188
0.343219 -0.129842 -0.481608
-0.095982 -0.091479 -0.155141
0.361032 -0.067985 0.224799
-0.602618 0.099545 -0.174331
0.025436 -0.265281 -0.032075
-0.143173 0.080831 -0.422852
0.166150 -0.214628 -0.028347
0.011990 -0.288741 0.462015
0.347783 -0.843353 -0.120960
-0.900165 0.164040 -0.134544
0.030778 -0.183262 -0.033449
-0.154546 -0.233163 0.039493
0.252341 0.265635 -0.348067
0.004794 0.688265 -0.092405
-0.164499 -0.208226 0.209985
0.163396 0.759784 -0.127093
-0.179649 -0.260065 -0.430125
0.049447 0.333732 0.273521
-0.800878 0.221826 -0.136055
0.066346 0.019171 -0.415718
0.534828 -0.087423 0.236516
-0.150894 0.063238 -0.216744
-0.615441 -0.021553 -0.092683
-0.211168 0.233902 0.290500
-0.120476 -0.078114 0.278454
-0.520203 -0.349028 0.057191
-0.263865 -0.406421 0.008758
-0.467876 0.268602 -0.112823
0.343889 0.150512 -0.367542
-0.031237 -0.310908 0.416486
-0.147822 0.132545 -0.408008
0.345082 0.148887 -0.427609
-0.130036 -0.381360 0.133559
-0.138327 0.153184 -0.422531
-0.615293 0.439614 0.071654
-0.167897 -0.161546 0.032064
0.136436 0.009368 0.066166
-0.553431 -0.244595 0.030099
0.535998 0.025815 0.213693
0.223442 -0.475819 0.073477
0.038771 -0.176598 -0.182996
-0.759908 0.045942 -0.115665
-0.082598 -0.086316 -0.193624
-0.026624 -0.439552 0.037170
-0.239874 0.242501 -0.203795
-0.180522 0.353440 0.296409
-0.293175 0.497484 0.123118
-0.599831 0.311991 -0.142222
-0.181233 0.275885 0.219073
0.112039 -0.066292 0.050053
-0.137483 -0.135354 0.245468
-0.229909 -0.316505 0.106972
0.496776 0.203813 0.219908
-0.588120 0.162747 -0.162200
0.640580 -0.612081 -0.226434
-0.091819 0.022768 -0.271540
0.413102 0.259604 0.133640
-0.074489 -0.114566 0.107033
0.270283 -0.162021 0.026271
-0.650891 -0.049227 -0.093814
-0.276306 0.216012 0.157080
-0.153878 0.406031 0.272278
0.590587 0.283333 -0.656141
-0.096359 -0.189802 0.343296
0.614997 0.160885 -0.595359
-0.678100 0.300841 -0.012141
0.841936 -0.252546 -0.220220
0.199377 -0.476716 0.112216
0.157946 -0.425672 0.065051
-0.728519 0.210659 -0.138920
-0.180528 0.482249 0.262023
-0.359928 0.299280 -0.045688
-0.113335 0.012734 -0.330684
0.370799 0.491171 0.224443
-0.080971 -0.061623 0.207263
-0.283783 -0.462864 -0.275242
-0.494395 0.251325 -0.063873
-0.356007 -0.349671 0.051752
-0.357770 0.189872 0.100239
0.137134 -0.808967 -0.208135
-0.049496 -0.104457 0.444247
0.189769 0.105538 0.180918
-0.226777 -0.196634 0.126416
-0.520947 0.431165 0.062435
0.569322 0.339739 0.294358
-0.154980 0.447685 0.296707
0.606242 0.381248 0.350558
0.369606 -0.385355 0.031572
-0.043912 0.052926 0.279455
-0.667356 0.275379 -0.151317
-0.165156 -0.279312 0.037672
0.547776 0.301910 0.276908
0.401877 0.686365 -0.061695
-0.147669 0.134838 -0.404901
0.569870 0.041672 0.250256
0.399454 0.434689 0.271443
0.387273 0.247969 0.125249
0.367275 0.198370 0.128909
0.489367 -0.346434 -0.228818
0.064050 0.022720 -0.425203
-0.091567 0.022059 -0.303145
-0.122975 -0.343942 0.117958
-0.236080 -0.585519 -0.342245
-0.481221 -0.414791 0.123613
-0.684608 0.433141 0.083540
0.695566 0.344765 -0.772031
0.098991 0.308426 0.259525
-0.139572 -0.035411 0.331897
0.675989 -0.892306 -0.001870
-0.164391 0.421295 0.237520
-0.094567 -0.425653 -0.258632
0.090677 0.643184 -0.043454
-0.597688 0.452683 0.118216
0.533038 -0.233133 -0.206044
0.214415 0.143794 -0.205112
0.197399 0.489579 0.262175
-0.523301 0.547394 0.003877
0.046143 -0.781607 -0.206498
-0.420792 0.659138 0.063740
-0.210603 0.475220 0.199932
0.238992 -0.436034 0.036843
-0.341541 -0.302091 0.074173
-0.146825 0.127924 -0.430069
0.401686 0.341367 0.198636
-0.101552 0.120666 0.283039
0.879339 -0.300856 -0.201999
-0.686305 0.282031 -0.155522
-0.057451 -0.004457 0.385452
-0.097912 -0.103344 0.303550
-0.099166 -0.172395 0.181792
-0.276143 0.379157 0.077693
-0.242987 -0.106694 -0.418716
0.277032 -0.489124 0.078337
-0.266781 -0.036750 0.143664
0.095032 -0.849159 -0.210477
-0.071844 -0.145075 0.442690
0.255923 0.085257 0.188292
-0.062614 -0.035574 0.402097
-0.198191 -0.076243 0.142288
-0.488664 0.139646 -0.001887
0.236504 0.353440 -0.418987
-0.627621 0.115893 -0.177201
0.418493 -0.059541 0.236083
0.217158 -0.905526 -0.206093
0.334453 0.570573 -0.078353
0.332343 0.027332 -0.490960
0.601292 -0.282131 -0.407722
-0.074673 -0.159019 -0.328247
0.361070 0.364643 0.209541
0.215463 -0.712594 -0.201030
0.626033 -0.757094 -0.082859
0.387138 0.816844 -0.177827
-0.529674 0.196725 -0.138647
-0.503920 0.043721 -0.309120
0.253864 -0.263767 -0.017879
0.766453 -0.352771 -0.234367
-0.107686 -0.373793 0.353950
-0.262411 0.210725 0.191514
-0.290218 -0.086893 0.139035
-0.043169 -0.492568 0.052364
-0.453866 0.160465 -0.016116
0.515893 0.471241 0.327083
0.249576 0.839318 -0.158665
-0.123004 -0.479447 0.135442
0.017531 -0.214205 -0.017111
-0.011693 -0.238496 0.423772
-0.534837 -0.267033 0.034630
-0.172640 -0.160803 0.060654
0.557549 -0.407437 -0.203131
0.637214 0.176007 -0.603487
-0.623173 0.087224 -0.182878
-0.440230 0.256639 -0.054526
0.577920 0.193393 -0.592058
-0.066597 -0.028124 0.164977
-0.167848 0.276350 0.253399
-0.222616 -0.458492 -0.301163
-0.098370 -0.425635 -0.261669
0.027613 -0.446631 0.057711
0.615116 -0.696575 -0.072654
0.575735 -0.281643 -0.416382
-0.743749 0.236272 -0.139419
-0.484482 -0.427210 0.142955
0.084400 0.758442 -0.125029
-0.101215 -0.505503 0.122647
0.272901 0.166571 -0.030485
0.123272 -0.853037 -0.214262
0.383574 -0.049538 0.224366
-0.354473 0.354582 -0.057638
-0.290995 0.462829 0.094306
-0.222372 0.150202 0.210470
-0.127755 -0.148344 -0.338609
-0.277795 0.306542 0.079311
0.033895 0.104873 -0.340635
-0.479555 0.558522 -0.020067
-0.647573 0.176918 -0.153392
0.327895 0.833993 -0.176981
0.078611 -0.431919 0.060127
0.516396 0.231819 0.220047
0.365703 0.169652 0.114995
0.132908 0.273293 -0.290593
0.492207 0.290510 -0.574819
-0.301553 -0.243429 0.194163
-0.316980 0.331383 0.019992
0.514771 -0.340165 -0.205563
-0.304530 0.507434 0.132758
0.495416 0.112711 0.243168
-0.762095 0.271316 -0.145319
0.281044 0.203495 -0.295495
-0.192890 -0.265724 -0.413765
-0.067803 0.111675 0.339032
0.433623 -0.709009 -0.104195
-0.271953 -0.256234 -0.351024
-0.077381 -0.069572 0.137771
-0.751219 0.031318 -0.125898
-0.073546 -0.304752 0.082648
-0.061825 -0.132672 0.442096
-0.623608 0.144797 -0.152492
0.352726 0.194991 -0.321320
0.049698 0.734372 -0.105489
-0.472872 0.148817 -0.008922
0.251443 0.186606 -0.090279
-0.171969 -0.112725 0.233462
-0.524185 0.627283 0.042511
0.388428 0.217564 -0.407075
0.040447 -0.029735 0.058487
0.365333 0.197798 -0.324524
0.556984 -0.091004 0.239949
-0.102351 -0.092518 -0.208219
-0.084415 0.050042 -0.316626
-0.698867 0.124685 -0.138006
-0.108232 -0.344037 -0.013412
-0.163813 0.066547 -0.364969
0.063838 0.031377 -0.438027
0.136273 -0.386017 0.050684
-0.211557 0.369453 0.132695
-0.357546 0.181722 0.113052
0.126600 -0.720201 -0.206372
0.328327 -0.242441 0.021324
-0.561076 0.005666 -0.092888
-0.042298 -0.564803 0.131485
-0.121777 -0.352840 0.121648
-0.748999 0.126097 -0.125086
-0.286896 0.435950 0.062679
0.477962 0.403867 -0.607845
-0.863040 0.103569 -0.116190
-0.069603 -0.242355 0.334071
0.213608 0.572338 0.291475
-0.238032 0.284398 0.118400
0.643038 -0.347023 -0.242439
0.049689 0.024475 -0.336259
-0.336877 0.315416 -0.007465
0.187000 -0.265728 -0.031353
0.127662 0.019377 0.081049
0.375599 0.319253 -0.486014
-0.513364 -0.357243 0.079166
-0.203411 -0.241433 0.098822
0.221326 0.656560 -0.020822
0.554088 -0.260418 -0.416667
-0.735053 -0.135805 -0.092743
-0.592394 0.130978 -0.173946
0.296717 0.846306 -0.172349
-0.026505 -0.204476 0.091598
0.544128 0.146734 0.258924
0.527549 0.194648 -0.586455
-0.206956 0.063457 0.162433
-0.529398 -0.372653 0.083183
-0.080398 -0.019827 -0.327897
-0.301718 0.516142 0.100867
0.600123 -0.329607 -0.213194
-0.560957 0.436944 0.092067
0.368951 0.183379 -0.400680
-0.636341 0.441502 0.103913
0.173346 0.535807 -0.240665
-0.777874 0.092230 -0.113868
-0.655149 0.243706 -0.142118
0.024365 -0.452840 0.059462
0.154371 -0.746162 -0.208842
-0.147703 0.066534 -0.207435
0.568803 0.000278 0.235301
-0.228474 0.230096 -0.233611
0.249501 0.627756 -0.008676
0.343338 0.151008 0.106745
-0.052254 -0.464101 0.044280
0.353407 0.217213 -0.316159
-0.124281 -0.370743 0.332298
0.202399 -0.845387 -0.216795
-0.259236 0.347740 0.103107
-0.881640 0.122893 -0.118687
0.341990 0.269292 -0.401650
0.018242 -0.412132 0.036368
-0.333828 -0.433154 0.015078
-0.500932 0.180737 -0.118070
0.416179 -0.191708 0.259250
-0.147410 -0.198019 0.259787
-0.238003 0.206157 0.152881
0.170596 0.628322 -0.204633
-0.441194 0.038149 -0.358465
-0.118830 -0.489794 0.100756
0.290652 0.209588 -0.296025
-0.265611 0.520448 0.172303
-0.399601 0.182303 0.082801
-0.712923 0.267361 0.010440
-0.098022 -0.153073 -0.226658
0.475627 0.004543 0.197154
0.712015 0.275875 -0.726827
0.085450 -0.861457 -0.204687
-0.153367 -0.048431 0.301016
-0.060620 -0.060576 -0.292892
0.354420 0.333448 -0.466662
-0.756210 0.365460 0.068367
0.116045 0.642677 -0.040690
-0.179491 -0.243850 0.156292
-0.730096 -0.047597 -0.100394
-0.711966 -0.098336 -0.089909
-0.548212 -0.407837 0.084555
0.382020 0.526323 0.253176
-0.791706 0.208969 -0.136513
0.282920 -0.254665 -0.005622
0.334283 -0.516181 0.108663
-0.218127 0.475816 0.219132
0.359714 0.610614 -0.099783
0.261704 0.041213 0.203160
0.545579 0.000297 0.212784
0.603649 -0.313884 -0.213162
0.340844 0.647285 -0.033118
-0.145613 0.024717 -0.238215
-0.208569 0.181792 0.223742
0.279887 -0.440185 0.033566
0.062378 0.727895 -0.099723
0.217086 -0.463393 0.063492
-0.083522 -0.277235 0.117154
0.320073 0.562777 0.266684
-0.540431 0.136995 -0.135236
-0.358349 0.454891 -0.010244
-0.483341 0.265548 -0.123626
-0.025804 0.007228 0.134433
0.098661 0.311319 0.247170
0.226308 0.144434 -0.164419
0.355041 0.044351 0.154230
0.111630 0.320585 0.250581
-0.326982 0.503036 0.054556
0.642915 0.326700 0.350591
-0.541171 0.259971 -0.148445
0.191941 -0.416082 0.033929
0.800666 -0.244102 -0.231699
-0.421518 0.471876 -0.020719
0.016530 -0.319455 0.506512
0.114511 0.523712 0.292302
-0.505955 0.256385 -0.132120
-0.455016 -0.110577 0.044895
0.342030 0.285890 -0.326141
0.662968 0.340611 -0.707578
-0.130138 -0.171389 0.337679
0.312889 -0.479928 0.105420
-0.036357 -0.020473 0.113246
-0.463496 0.194167 -0.044938
-0.008083 -0.301053 0.456613
0.079938 0.341551 -0.400976
0.367474 0.274816 -0.411733
0.289049 -0.264264 -0.004747
-0.040088 -0.495801 0.052203
0.102361 0.237907 0.218409
0.514936 0.355738 -0.603109
-0.100926 -0.173700 -0.203788
0.776726 -0.324465 -0.230194
-0.633806 0.009977 -0.114482
0.471868 -0.372425 -0.278267
-0.548283 0.225375 -0.148108
-0.131967 -0.409041 0.165830
0.299697 0.856499 -0.185311
0.137317 0.268366 0.202173
0.079055 -0.898691 -0.180143
0.041199 -0.177206 -0.176740
0.158127 -0.179239 -0.008371
0.532074 0.086628 0.244123
-0.192852 -0.344780 0.009953
0.374053 0.248885 0.106694
-0.486140 -0.078452 0.036973
-0.148370 0.057354 -0.194571
-0.143153 0.023390 -0.282523
-0.125816 -0.394515 0.114738
0.186492 0.637016 -0.205339
0.111306 -0.842979 -0.200390
-0.457510 -0.088293 0.049616
-0.312708 0.553951 0.084605
-0.011490 -0.094312 0.512334
0.682119 -0.374881 -0.285076
0.025354 -0.534195 0.097006
-0.306370 0.452791 0.089738
0.007576 0.663062 -0.086030
0.183269 -0.312691 -0.015258
0.502790 -0.118111 0.245378
-0.099348 -0.487724 0.071405
0.095675 -0.075642 0.039453
0.831512 -0.309409 -0.208526
0.493659 0.327377 0.230676
-0.170832 -0.263046 0.154471
0.148644 -0.865984 -0.202413
0.310368 0.184161 0.040621
0.689376 -0.754190 -0.030571
0.052677 -0.147501 -0.250461
-0.002652 -0.613993 0.121767
-0.019145 -0.593497 0.085649
0.368248 0.826375 -0.194628
-0.270886 0.493946 0.125628
-0.458411 -0.336918 0.102225
0.314687 0.183317 -0.316178
0.125262 0.342731 0.265341
0.404451 0.452337 0.217480
0.504029 -0.023979 0.216135
0.260584 0.388504 0.186421
0.074940 0.076746 -0.376143
-0.192239 -0.303646 -0.412970
-0.305125 0.510677 0.135869
0.344641 -0.762398 -0.178639
-0.859010 0.144509 -0.118659
0.476733 -0.284680 -0.248703
-0.640763 0.038083 -0.136614
0.121911 -0.981465 -0.164155
0.090578 -0.776246 -0.204838
-0.095327 -0.119557 0.145755
-0.076260 0.124998 0.361149
-0.131021 -0.053796 0.224534
0.704345 -0.377678 -0.280044
0.337320 -0.508009 0.098904
0.053855 -0.208065 -0.182810
-0.306957 0.506435 0.085441
0.560971 -0.028319 0.220488
-0.223111 -0.486418 -0.278417
-0.322800 -0.376356 0.022225
-0.253298 0.459218 0.147930
-0.197593 0.450845 0.253773
-0.350531 0.445385 -0.003497
0.076818 -0.034560 -0.405419
0.496907 -0.406493 -0.221807
0.398817 0.150637 0.145936
-0.264438 0.294020 0.098111
-0.192894 0.472285 0.227868
0.627299 -0.355960 -0.233895
-0.449222 0.278946 -0.055290
-0.226413 0.370008 0.142652
0.167461 0.379877 0.272903
-0.281074 0.303389 0.076324
0.684276 0.382932 -0.772485
-0.098118 -0.318947 -0.011870
0.112875 0.652073 -0.047708
-0.404064 0.608521 0.030505
-0.099188 -0.258520 0.287967
0.783070 -0.513375 -0.191863
0.710829 -0.443031 -0.227962
0.350506 0.340437 -0.495135
0.235523 -0.804652 -0.199119
-0.189683 0.442029 0.291639
-0.068061 -0.038114 0.424457
-0.102327 -0.381778 0.000780
0.533724 0.231755 0.234622
-0.105311 0.022236 -0.309023
-0.134433 -0.174801 0.322087
-0.577228 -0.322969 0.034619
-0.086463 0.013435 0.308174
0.638939 -0.264543 -0.232645
0.551929 -0.239823 -0.203602
-0.200851 -0.054069 0.141928
0.189897 0.118065 0.175890
0.328401 0.339760 0.194579
-0.077983 0.162663 0.347750
-0.633273 0.442045 0.100640
0.612183 -0.491063 -0.213510
-0.144218 -0.006690 0.197788
0.192747 0.702733 -0.156380
-0.309358 0.343490 0.003676
-0.042391 -0.526270 0.100844
0.398072 0.147425 0.142868
0.060878 -0.017601 -0.398494
0.094379 0.190818 0.224553
-0.291551 -0.556993 -0.252453
-0.342612 0.534634 0.038580
-0.075939 -0.476399 0.035844
0.014007 -0.269975 0.455223
-0.452253 -0.123352 0.041699
0.431256 0.125932 0.204581
0.620293 0.370626 -0.679952
-0.317891 0.591069 0.185133
0.765117 -0.589094 -0.204139
0.305561 0.273967 -0.370306
0.521564 0.137603 0.251952
-0.077894 -0.282165 0.099105
0.361539 0.005611 -0.500929
0.301642 0.049207 0.176582
-0.034142 -0.610024 0.122709
0.586941 -0.354567 -0.211952
-0.172658 -0.151467 0.054131
-0.707647 0.165795 -0.145714
0.211520 -0.731703 -0.211591
0.579693 0.168261 0.268022
-0.598372 0.241412 -0.046037
0.367659 -0.049261 0.220780
0.149934 0.535816 0.303809
-0.296529 -0.083635 0.137070
0.470650 0.316260 -0.575567
0.175225 0.427346 0.283578
-0.081517 -0.555420 0.183142
0.180806 0.452409 0.279323
0.132951 -0.843787 -0.214869
-0.170299 -0.261959 0.061899
-0.252195 0.210911 0.210143
-0.070942 -0.105827 -0.348482
0.041003 -0.253076 -0.036007
0.200794 0.172901 0.180371
0.613012 0.408804 -0.675880
-0.243753 0.391465 0.095337
0.619971 -0.279678 -0.221764
-0.002590 -0.620259 0.128222
0.476726 0.303516 -0.574043
-0.481352 -0.305714 0.054510
0.025589 -0.230678 -0.039147
0.517053 0.022649 0.194358
-0.154689 0.044654 -0.203575
0.344632 0.592573 -0.073613
0.560883 -0.265266 -0.201764
0.917398 -0.440628 -0.195854
-0.417814 -0.339150 0.088303
0.786452 -0.321404 -0.224872
-0.164615 0.424529 0.240618
-0.261850 0.247126 -0.160181
-0.093654 0.013123 -0.280756
-0.706699 0.270267 0.005281
-0.551919 0.335199 -0.045233
0.469234 -0.786032 -0.121040
-0.273746 -0.422026 0.007622
-0.099515 -0.509608 0.081957
0.464204 -0.947985 -0.160939
-0.547820 0.090311 -0.134825
0.065006 0.090737 -0.325541
-0.126632 -0.255430 0.257184
-0.453855 -0.306061 0.066639
0.044892 0.026944 -0.434152
-0.099781 0.009614 -0.302609
0.116425 0.100011 -0.424985
-0.488487 0.460515 -0.030674
0.167284 0.299842 0.226649
-0.609832 0.424111 0.056004
0.429692 0.131532 0.170629
0.601187 0.225499 0.305435
-0.126886 -0.363620 -0.202012
-0.116436 -0.478403 0.188946
0.519789 0.416622 0.290909
0.251817 0.366736 0.193498
-0.162723 -0.054954 0.282495
-0.246929 0.226139 -0.236084
0.087037 0.337156 0.260335
0.001301 -0.348019 0.485769
0.457952 0.379452 0.262497
