0.793244 -0.115291 0.032190
-0.318298 -0.024188 0.099610
-0.368481 -0.247756 0.332457
-0.089215 0.338631 -0.212809
-0.010820 -0.065231 -0.430701
0.232700 -0.538479 0.038129
0.320928 -0.268610 0.091040
-0.147996 -0.301615 0.189553
-0.791317 -0.028212 0.263953
-0.252206 -0.033804 0.233739
-0.634741 0.106908 0.386054
0.622942 0.299804 -0.119749
0.319001 0.800000 -0.386943
-0.510637 0.144032 0.252356
0.034873 0.143942 -0.386284
0.107617 0.400702 -0.075259
0.478328 -0.435432 0.187559
-0.164048 -0.001822 0.177568
0.098790 0.218088 -0.201727
0.260986 -0.484519 0.073328
0.038149 0.061990 0.131130
0.303422 -0.478232 0.111573
0.264662 -0.360302 -0.078374
-0.092057 0.226715 -0.312746
-0.013819 -0.286272 0.115786
0.112225 -0.361106 -0.053458
-0.214119 0.419682 -0.218275
0.071721 0.096693 0.159034
0.089535 -0.126465 -0.280040
0.207037 -0.257357 0.091542
0.272921 -0.540092 0.084144
0.309211 0.327826 -0.000035
0.174051 0.569061 0.070593
-0.310503 -0.298641 0.232577
0.112760 0.506124 -0.041548
0.233354 0.000301 0.055435
-0.350795 -0.016912 0.042591
-0.357209 -0.058141 0.357815
0.058843 0.134745 0.130567
-0.381935 0.128307 0.356284
-0.196280 -0.407601 0.332877
-0.060226 0.079489 -0.062649
0.049985 0.094471 -0.276871
-0.112395 -0.617764 0.117827
-0.079589 0.229776 -0.191990
0.053755 0.118102 -0.419006
-0.284894 0.459123 -0.373959
0.200515 -0.460871 0.010494
0.067887 -0.084792 -0.078998
-0.279153 -0.190003 0.306062
-0.472709 -0.337331 0.327514
-0.057529 0.308837 0.021183
0.111136 0.051096 0.166086
0.778411 0.061259 -0.089712
-0.623202 0.181966 0.420151
0.096688 0.194110 -0.005045
-0.179021 -0.243841 0.108488
-0.597904 0.200333 0.496954
0.251849 0.080303 -0.068724
0.126170 0.325272 -0.107314
0.332669 -0.332583 -0.073140
0.049957 -0.086654 -0.402225
-0.270567 0.073496 -0.062180
-0.241055 -0.156704 0.168570
0.586371 0.330191 -0.064788
0.097276 0.023963 0.121968
-0.543893 -0.232132 0.276022
-0.119164 0.194609 0.203093
0.029114 -0.026336 -0.402896
0.326005 -0.339770 -0.069772
0.056984 -0.467208 0.012104
0.462755 0.388309 0.099054
-0.261144 -0.382737 0.320241
-0.255896 -0.377785 0.262248
0.017999 -0.095987 -0.338482
-0.034672 0.547537 -0.488839
-0.314130 -0.044502 0.347886
0.267774 -0.229606 0.155407
-0.568711 0.068699 0.271081
0.785201 -0.040659 -0.017463
-0.157961 0.269285 -0.353401
0.971974 0.148446 0.084037
0.103630 0.259923 -0.144795
0.371653 -0.545746 0.170706
0.057218 0.764609 -0.576177
-0.102991 0.250868 0.215976
-0.593170 -0.088710 0.469088
0.092233 -0.276592 0.116527
0.184694 -0.274683 0.070836
0.044347 -0.066617 -0.277365
-0.360880 -0.250041 0.375577
-0.529434 0.043577 0.205709
-0.276990 -0.374144 0.273902
-0.636038 -0.178430 0.351920
0.100409 0.566428 -0.695671
0.368036 -0.372068 0.195587
-0.650834 -0.134674 0.298321
0.171285 0.042277 0.136222
-0.175334 -0.150519 0.094987
-0.280140 -0.329994 0.247797
0.264417 -0.016601 0.073613
0.116789 0.193828 -0.008020
0.041527 -0.056009 -0.362926
0.355298 0.231200 -0.050680
-0.361916 -0.269474 0.405791
-0.132053 0.383691 -0.406371
-0.015039 -0.018042 -0.278683
-0.424781 0.130653 0.297373
0.095550 -0.402398 -0.018917
-0.158050 -0.355546 0.253594
0.149943 0.136469 -0.031445
-0.475758 0.151777 -0.007552
-0.514377 -0.376628 0.410563
0.011497 0.098000 0.134783
-0.653368 0.025122 0.436363
0.183617 -0.395658 -0.033925
-0.456670 -0.116029 0.184633
-0.047715 0.192049 -0.229476
0.208150 0.440107 0.084701
-0.384608 0.258669 0.018457
-0.528427 0.109279 0.244495
0.079506 0.543363 -0.437153
-0.759667 -0.129826 0.291095
0.028195 0.597196 -0.570686
0.094249 0.706095 -0.680533
0.029113 -0.104572 -0.374560
0.241995 -0.470612 0.053563
-0.509631 -0.357224 0.351145
0.338016 -0.386483 0.102941
-0.413965 0.157859 0.346218
-0.015031 0.237289 -0.316951
-0.125411 -0.512766 0.063399
-0.006588 0.217294 -0.311287
-0.117949 -0.123651 -0.005788
-0.134571 -0.426603 0.377581
-0.229603 -0.537741 0.144733
0.407900 -0.071927 -0.008271
-0.511082 0.135086 0.001519
-0.555944 -0.322397 0.499561
0.215107 -0.597942 0.051126
-0.618969 0.012554 0.329905
-0.114885 0.539908 -0.386415
-0.056435 0.282068 0.015504
-0.026593 0.270401 -0.280102
-0.144831 0.351293 -0.384013
-0.060964 0.315130 0.005056
0.250835 0.005158 0.115427
0.772783 0.117772 -0.206047
-0.707473 -0.163015 0.352559
0.261135 -0.176953 -0.006451
0.002976 -0.145536 -0.417167
0.172673 -0.456494 -0.005468
0.075093 0.027426 0.034536
0.046137 -0.038857 -0.226233
0.005456 0.107067 -0.165199
0.387327 -0.241818 0.218029
0.188385 -0.498079 -0.033654
0.143228 -0.169199 -0.098265
0.014986 -0.342037 0.234359
0.098350 -0.131136 -0.348544
0.688385 0.218944 -0.143290
0.643076 0.315383 -0.108321
0.970232 0.119304 -0.013421
-0.026250 0.058736 -0.191655
-0.266013 -0.370910 0.266865
-0.150363 0.235718 -0.340388
0.242386 0.065814 -0.077266
0.171811 0.503330 0.047187
0.310936 -0.608540 0.042440
-0.701597 -0.120641 0.286440
0.198616 -0.784937 0.228276
-0.578055 0.177534 0.317355
-0.579319 0.129136 0.279215
-0.069645 -0.593227 0.074232
0.380580 0.423404 0.043070
-0.296042 0.519322 -0.364147
-0.357205 -0.089008 0.438481
-0.421607 -0.058853 -0.024983
-0.273150 -0.013640 0.288228
-0.418764 0.151410 0.327109
0.129342 0.724029 -0.447087
0.378103 0.197936 -0.059872
0.383569 0.326486 0.036997
0.347440 0.201091 0.131820
0.744847 -0.170243 0.035346
-0.006235 0.568090 -0.029594
-0.635657 -0.136209 0.307453
0.736206 -0.091990 -0.088765
0.144449 0.021110 0.200180
0.043958 0.536232 -0.386108
-0.563592 0.040113 0.119447
-0.440398 0.095276 0.260605
-0.012707 0.584293 -0.382747
0.094141 -0.415422 -0.024755
0.165952 -0.692976 0.059195
0.069386 -0.254456 -0.007264
0.397493 0.334330 0.046745
-0.401853 -0.056855 0.141507
0.167975 -0.458870 -0.087825
-0.501999 -0.364122 0.378236
-0.385490 0.237777 0.004171
0.521994 0.010612 -0.319970
0.245950 -0.132173 -0.004933
-0.418889 0.194510 0.407593
-0.210216 0.454941 -0.409437
0.345644 -0.135242 0.082893
0.772620 -0.098491 -0.050768
-0.032364 0.498104 -0.064026
0.173355 -0.471168 -0.058347
0.118925 0.435811 -0.047566
0.343656 0.389143 0.015508
-0.316038 0.025370 -0.049624
-0.240751 -0.419163 0.169708
-0.258522 0.383000 -0.369945
0.072553 -0.172089 0.179386
0.073110 0.724657 -0.663314
-0.431519 -0.032257 0.291094
-0.083964 0.515324 -0.333819
0.129141 -0.553684 0.051045
-0.064720 0.274849 -0.162226
0.089293 0.193360 -0.226839
-0.023520 -0.544809 0.045854
0.333224 -0.443855 0.167735
0.763199 0.035105 -0.169806
0.097407 -0.662014 0.254080
0.015727 0.555445 -0.369918
-0.694571 -0.022837 0.444313
-0.049290 0.577547 -0.388470
0.134523 0.239175 -0.062877
0.248493 -0.175139 -0.013142
0.065607 -0.526163 0.152744
-0.609355 0.152712 0.343664
0.065561 0.094410 -0.302206
-0.389340 -0.297483 0.396418
-0.377142 0.112004 0.340722
0.216132 0.053758 0.007078
0.527072 0.170464 -0.085542
-0.526021 -0.001714 0.180700
-0.014568 -0.038023 -0.332162
-0.317927 0.519917 -0.561076
-0.380409 -0.262179 0.333912
-0.540658 -0.084676 0.347889
0.052944 0.105203 -0.432257
-0.058570 0.339595 0.186477
-0.105484 0.179930 -0.295460
0.097816 0.328369 -0.221134
0.649072 0.248383 -0.136042
0.550157 0.287545 -0.067842
0.075352 0.521045 -0.060271
0.680974 0.141175 -0.187249
-0.684043 -0.052920 0.413968
-0.369562 -0.270438 0.478250
0.148680 0.362417 -0.086252
-0.200305 -0.386911 0.152829
-0.622558 0.185581 0.478763
-0.816664 -0.025367 0.385117
0.020968 0.241750 0.108823
-0.635005 0.015135 0.413745
0.216825 -0.573751 0.039149
0.023027 0.642833 -0.549066
0.887166 0.056313 0.072621
0.052181 0.502268 -0.416114
-0.385451 -0.290177 0.497900
-0.283245 0.250850 -0.021541
-0.252757 -0.060272 0.052156
-0.066529 0.329160 0.200449
-0.586742 0.155557 0.319498
-0.140149 -0.396595 0.327111
0.199641 -0.790870 0.204328
0.826321 0.036044 -0.010471
-0.433714 -0.048020 0.221673
0.398926 -0.567071 0.125767
0.013006 0.470324 -0.077009
0.094029 -0.136766 -0.317077
0.148279 0.482869 0.035933
-0.054752 -0.100165 -0.015469
0.065931 -0.238066 -0.382200
-0.110901 -0.269763 0.219913
0.202279 0.456066 0.051700
0.025306 -0.071992 -0.276332
0.015181 -0.069046 -0.330281
0.256121 -0.018329 0.064841
0.243403 0.339512 -0.103849
0.391372 0.395227 0.028822
0.391369 -0.584423 0.114230
0.141676 0.642715 -0.472663
0.017426 0.303122 -0.246753
0.001232 0.279751 -0.000981
-0.592153 0.014737 0.308173
0.465830 0.339477 0.114439
-0.081063 0.627172 -0.422112
0.090256 0.796071 -0.604894
-0.344183 -0.239502 0.393055
-0.045243 -0.469975 0.043765
-0.646420 -0.087717 0.224971
-0.627909 0.177213 0.422351
0.401301 -0.017872 -0.373912
0.177263 0.426032 0.007519
-0.691479 -0.041855 0.438607
-0.009454 -0.103609 -0.120212
-0.258050 -0.032708 0.275534
0.157294 0.588924 -0.353001
-0.535473 0.228342 0.483846
0.203116 0.415405 0.065267
-0.681170 -0.122320 0.296840
0.272453 -0.549476 -0.009081
-0.404051 -0.167871 0.240821
-0.064523 -0.597118 0.091668
-0.386567 0.319580 0.052067
-0.405766 -0.127279 0.234107
0.123712 0.177345 -0.003626
-0.210010 0.425501 -0.225824
0.075676 0.550636 -0.010244
-0.676604 -0.156680 0.450057
-0.347739 0.577112 -0.255668
-0.112802 0.315199 -0.022972
-0.046751 -0.348067 0.286184
-0.610341 -0.115865 0.283245
-0.634395 0.040239 0.470056
0.035383 -0.215467 0.014578
0.042393 -0.201145 -0.000571
0.528766 0.014922 -0.329988
0.296363 0.430747 0.004052
-0.057181 0.328043 0.002919
-0.407087 0.185205 0.445617
-0.416711 -0.323447 0.409730
-0.655824 0.070677 0.463519
0.032782 -0.292435 0.023715
-0.551524 -0.236628 0.283773
0.084635 0.319475 -0.023012
-0.012051 0.563626 -0.032077
0.619791 0.129763 -0.150605
0.403086 -0.571448 0.099438
0.077041 0.065439 -0.195402
-0.660496 -0.131928 0.289566
-0.207005 -0.529472 0.114693
-0.415873 -0.284982 0.314714
0.169375 -0.353505 -0.128493
0.374444 0.351297 0.027053
-0.423146 0.123005 -0.015408
-0.571094 0.060189 0.299997
-0.189579 -0.212568 0.188391
0.017684 -0.424340 0.009463
0.757921 -0.176530 0.028314
0.059938 0.055821 -0.329897
0.113834 0.133860 0.077281
0.448928 0.304657 0.104515
0.154887 -0.437137 -0.085858
0.200145 -0.799315 0.113818
-0.660872 0.003532 0.384873
-0.485618 0.138814 -0.008223
-0.742171 -0.033030 0.244748
0.191860 0.078170 -0.060949
0.112299 -0.706053 0.126907
0.795227 -0.099598 -0.015251
-0.262119 0.547779 -0.605570
0.839471 0.122671 -0.143573
-0.358100 -0.240483 0.402552
-0.342706 0.589778 -0.529012
0.095668 0.325297 -0.094935
-0.174979 -0.471988 0.099675
0.050867 0.492812 -0.450946
-0.532461 0.008219 0.145354
0.001449 -0.091822 -0.403566
-0.609719 -0.030000 0.273394
-0.051552 0.462912 -0.060846
-0.148256 0.408295 -0.394463
0.255179 -0.327356 0.034472
0.178800 -0.151180 -0.039463
-0.002568 0.129442 -0.158954
0.111930 0.305265 -0.225798
0.725791 0.029884 -0.178229
-0.084388 0.389226 0.058276
-0.015299 -0.368912 0.257874
0.918328 0.077101 -0.012997
-0.270213 0.285907 -0.286200
-0.170377 0.171577 -0.339325
0.567648 0.198035 -0.127012
-0.439398 0.275834 0.063756
0.345028 -0.286533 0.131436
0.664825 0.145717 -0.182170
-0.291270 0.256667 -0.285730
0.022078 -0.118953 -0.303970
0.963492 0.156256 -0.055891
-0.235856 0.266470 -0.015186
0.158277 -0.399412 -0.154089
0.249456 0.345095 -0.102354
0.185616 0.106162 -0.084852
0.838739 0.036825 0.003840
0.215789 -0.443108 -0.017227
0.226767 -0.491835 0.027781
0.302655 0.705926 -0.387178
-0.045913 -0.086289 0.137110
-0.153958 0.341161 0.021922
-0.058413 -0.408913 0.033021
0.084081 0.417725 -0.086470
0.102871 -0.350525 -0.091263
-0.087693 0.364390 0.157952
-0.434785 0.019086 0.220959
0.087178 0.076296 -0.167811
-0.130213 0.300805 -0.375770
-0.293261 0.286461 0.000077
0.193268 0.089249 -0.092960
-0.752413 -0.088042 0.274909
0.296804 0.490948 0.041192
0.323975 -0.556949 0.141818
0.105046 -0.602349 0.093491
0.469918 -0.445156 0.194695
-0.066110 0.542443 -0.435620
0.125939 -0.321743 -0.087991
0.000584 -0.087231 -0.355695
0.123960 -0.286575 -0.032649
-0.632936 -0.207587 0.420813
0.192107 -0.153006 -0.041281
-0.373228 0.024803 -0.000727
-0.672662 -0.170960 0.442159
-0.409142 0.154222 0.346546
0.618667 0.180662 -0.145994
0.972584 0.231643 -0.045918
-0.232052 0.342254 -0.383855
-0.652564 -0.049386 0.320839
-0.665188 0.132141 0.498361
-0.374356 0.084276 -0.020069
0.492170 0.208535 -0.026561
-0.141094 0.586406 -0.385092
-0.221903 -0.072140 -0.264368
0.416614 -0.119776 0.030981
0.676080 0.154568 -0.172531
-0.555610 0.040465 0.066915
-0.263133 0.276340 -0.309572
-0.556379 -0.323352 0.358578
0.092557 0.577246 -0.656236
-0.118656 -0.608887 0.109903
-0.600347 0.037107 0.345114
0.165980 -0.359846 0.291264
-0.033149 -0.174905 0.017706
0.977736 0.288791 0.040700
-0.298175 -0.158639 0.336614
-0.215269 -0.021022 0.018887
0.704406 0.021727 -0.163121
0.398442 0.413018 0.039362
-0.362493 -0.229731 0.327924
0.009933 -0.370310 0.031204
0.366181 0.049317 -0.064839
-0.780191 -0.164652 0.386740
-0.596806 -0.150368 0.299766
0.744298 0.136288 -0.185591
0.208498 -0.168759 -0.039386
0.282655 -0.436744 0.073365
-0.210896 0.177848 -0.359067
0.021958 0.608420 -0.557706
-0.253372 0.553183 -0.570206
-0.250501 0.547431 -0.548798
0.061841 0.081884 -0.314159
0.192727 0.329315 -0.058281
-0.664319 0.089050 0.468459
-0.406852 0.250719 0.031915
-0.091557 -0.248035 0.115474
0.280289 -0.594622 0.082091
0.194042 0.476689 -0.354575
-0.662524 -0.036968 0.214848
0.141837 -0.142825 -0.151117
-0.042417 0.093988 -0.411970
0.687607 0.105621 -0.203560
0.110701 -0.306254 -0.276636
-0.432071 0.214191 0.029269
0.327219 0.447428 0.017737
0.056369 0.709115 -0.502720
0.039730 0.632617 0.015860
0.104312 -0.668879 0.273135
-0.150750 0.324482 -0.353030
0.019265 0.307118 0.077872
0.242063 -0.320398 0.043255
-0.029971 0.542406 -0.425173
0.508859 0.278250 -0.018729
-0.005504 -0.482948 0.020095
0.173337 0.646059 -0.465775
-0.581760 -0.265201 0.309002
-0.019297 -0.290085 0.086031
0.064115 -0.096943 -0.345415
-0.767282 -0.120568 0.302415
-0.671853 0.002489 0.477038
-0.342444 0.572055 -0.255325
-0.459833 -0.343593 0.361785
-0.087086 -0.588450 0.087033
-0.615446 -0.218449 0.310365
0.025585 0.214700 0.095447
-0.270970 0.571256 -0.539481
0.671257 0.331863 -0.095139
0.100122 0.579042 -0.476401
-0.139662 0.373451 -0.396520
0.435915 0.288444 -0.015292
0.292539 -0.221289 0.162994
-0.258401 0.438714 -0.447552
-0.193850 -0.039870 0.156720
0.162517 -0.304906 0.081836
0.974255 0.301811 0.045801
0.342558 0.468940 0.032676
0.648825 0.054245 -0.282417
0.200950 0.047142 0.074879
0.607799 0.320064 -0.097797
0.124095 -0.356134 -0.196008
0.077988 -0.617445 0.194759
-0.055052 0.591834 -0.425923
0.113754 0.728652 -0.710494
0.067353 -0.509116 0.167035
0.063892 -0.118757 -0.330272
-0.132395 -0.315825 0.238680
0.386018 -0.023650 -0.360764
0.401620 0.077765 -0.059874
0.426408 0.250937 0.128389
0.417776 -0.441157 0.218866
-0.106960 -0.387769 0.095936
-0.285421 0.277400 -0.288204
0.065450 0.711875 -0.648246
0.962527 0.131022 0.084540
0.246426 -0.535757 0.004966
0.754776 -0.171160 0.044107
-0.611855 -0.130525 0.336060
0.056259 -0.265678 0.182920
-0.740911 -0.130114 0.291087
-0.448770 0.173016 0.338345
0.463304 0.214368 -0.089142
-0.814571 -0.055313 0.297034
0.296878 -0.382886 0.086195
0.259659 0.016973 0.161541
0.361818 0.479246 0.045615
-0.197048 -0.098118 -0.326990
0.131318 -0.306250 -0.284999
-0.161570 0.324492 -0.206372
-0.325537 0.586326 -0.599404
-0.635012 0.114543 0.380842
0.092395 -0.121971 -0.263780
-0.277478 -0.022536 0.015902
-0.142265 -0.033659 0.057937
0.234659 -0.293082 0.050627
0.273713 0.234866 0.037778
-0.794572 -0.084195 0.271667
0.269004 -0.432257 0.077504
0.419538 -0.382938 0.234311
-0.582253 0.065421 0.360343
-0.120916 -0.204532 0.089902
0.241362 -0.819405 0.146211
-0.306166 0.216867 -0.031048
0.166300 -0.421775 -0.100634
0.079677 0.093194 -0.234611
-0.011882 0.220436 -0.285070
-0.795681 0.060836 0.356344
0.958559 0.235003 -0.068051
-0.016721 0.273811 -0.194158
-0.267209 0.479370 -0.420990
-0.087461 0.358125 0.006298
0.056059 -0.442871 -0.000134
-0.154865 -0.482405 0.083604
-0.331139 0.301630 0.031492
-0.668246 -0.005892 0.376143
-0.668619 0.124305 0.508589
0.188545 0.470644 -0.397665
-0.203358 -0.281815 0.144063
0.183822 -0.649980 0.059161
0.106740 0.645514 -0.682548
-0.127916 0.376249 -0.404234
-0.161621 -0.304947 0.185996
0.577985 0.212363 -0.117118
0.153911 -0.210367 0.000293
0.049251 -0.110141 -0.298971
0.153738 -0.524347 0.026930
-0.581282 -0.025243 0.247221
-0.066182 -0.240708 0.108994
0.214207 0.049475 0.081305
0.699287 0.334074 -0.106136
-0.115840 -0.212102 0.114117
-0.238231 0.424287 -0.347780
0.089839 -0.624211 0.280693
-0.259475 -0.382454 0.291131
-0.345770 -0.167155 0.297251
0.072115 -0.115512 -0.326467
0.101120 -0.666344 0.294193
-0.330563 -0.162574 0.350238
0.427455 -0.118205 0.034541
0.842728 0.122129 -0.140660
-0.053833 0.076717 -0.080794
-0.227508 -0.369021 0.224359
-0.096376 0.322985 -0.191783
-0.008613 -0.330378 0.037147
0.180298 -0.461834 -0.043221
0.120507 0.265209 -0.082186
0.312971 -0.501591 0.109293
0.822656 -0.024687 0.028103
-0.141222 0.442650 -0.318533
-0.437315 -0.019732 0.081491
0.203445 -0.430320 -0.041940
0.100312 -0.458602 -0.045415
0.138906 0.268149 -0.088629
0.123068 -0.525547 0.066766
0.232774 -0.027344 0.046545
-0.068805 0.332279 0.196166
-0.764081 0.089693 0.314172
0.157602 -0.486388 -0.009350
-0.120741 0.238039 0.211670
-0.081847 0.085208 -0.187622
-0.057826 0.111276 -0.378181
0.110103 -0.723814 0.198228
-0.297930 0.095735 -0.049248
-0.114394 0.359140 -0.025108
0.306982 -0.361021 0.076546
0.020284 0.277534 0.077458
-0.564795 0.080388 0.063258
0.063988 -0.321089 0.121480
-0.041333 0.659907 -0.442290
0.186406 0.022637 0.078613
-0.256101 -0.136390 0.207598
0.011282 0.176279 -0.353078
0.103965 -0.130801 -0.212471
0.369013 -0.256612 0.184784
-0.499781 0.015805 0.187689
0.708947 -0.176284 0.002652
-0.054411 0.457983 -0.061621
0.080309 0.763677 -0.468495
0.110153 -0.250841 0.200055
0.162081 0.540965 -0.385327
0.785293 0.200932 -0.179336
0.898334 0.109764 -0.075129
0.128335 0.801029 -0.704860
0.850892 0.279476 -0.118758
-0.098621 -0.142051 -0.114863
-0.196026 -0.077997 -0.296947
0.164880 -0.777739 0.127289
0.089708 -0.659117 0.189689
-0.140864 0.316418 -0.211108
0.206579 0.145278 -0.057536
0.248981 0.865702 -0.412847
0.116823 -0.579298 0.071604
0.707305 0.035041 -0.172754
-0.051490 0.134250 -0.240002
-0.152537 0.372191 -0.097103
-0.396864 -0.059978 0.176426
0.961798 0.126377 -0.032192
0.077097 0.018554 0.202813
-0.473827 0.173805 0.317717
0.261454 -0.514595 0.091851
0.129410 -0.750441 0.180726
-0.640317 0.000562 0.205664
-0.565261 0.092692 0.067077
-0.377263 -0.269701 0.395199
0.162736 -0.270077 0.119664
0.207085 -0.057044 -0.006144
-0.085565 -0.145047 0.021339
-0.604159 0.142170 0.311675
0.462795 -0.298396 0.248085
0.019668 -0.533122 0.059447
-0.199453 -0.606235 0.140656
-0.233007 0.269219 -0.012251
0.016971 0.284380 -0.244444
-0.659652 0.015979 0.480908
-0.629962 0.005323 0.356539
0.579258 0.092916 -0.111881
-0.616433 0.158555 0.361805
-0.003320 -0.058131 -0.149630
0.021896 -0.293605 0.194963
0.838710 0.195296 -0.151682
-0.635310 -0.144076 0.458654
0.688185 0.373558 -0.029257
-0.162351 -0.322398 0.226644
0.114554 0.480885 -0.009917
0.069154 -0.572822 0.080453
-0.046878 0.024185 -0.437450
0.115796 0.008914 0.200871
0.081404 -0.672881 0.154430
0.803827 0.115750 -0.194689
-0.533342 0.124157 0.025768
-0.519564 -0.002913 0.095688
0.318270 -0.242772 0.137987
-0.063727 0.124744 -0.256287
0.377712 0.410629 0.025703
-0.253124 -0.406316 0.346135
-0.039408 -0.270891 0.159804
0.484155 0.014384 -0.344232
0.793404 -0.132871 0.034567
-0.351350 -0.003408 0.316659
0.217893 -0.798582 0.128557
0.097807 -0.690985 0.235013
-0.653557 -0.235318 0.368167
0.063460 0.178478 -0.234491
-0.521976 -0.091852 0.128571
-0.506253 -0.012740 0.115210
0.056684 -0.551287 0.234035
0.187699 -0.316132 0.025180
0.081820 -0.642004 0.191998
-0.080367 0.354615 -0.330893
-0.115333 0.220298 0.222446
0.111450 -0.098725 -0.043553
0.041498 -0.163939 -0.023952
-0.221451 -0.098113 -0.283380
-0.097279 -0.359794 0.099845
0.108913 0.457771 -0.055964
0.065422 0.673492 -0.614268
-0.620533 0.093576 0.397613
-0.651585 -0.164509 0.356217
-0.100142 0.220151 -0.324380
0.060843 -0.514793 0.184459
-0.510057 0.127957 0.249827
-0.347947 0.094231 -0.030494
0.095023 0.321517 -0.242844
0.091861 0.327523 -0.213748
-0.145344 0.365406 -0.407257
-0.210781 -0.420352 0.156838
0.133441 0.598666 -0.389330
0.206306 -0.785709 0.231543
0.115055 0.456150 -0.068791
-0.567118 -0.082908 0.215489
-0.519044 -0.001071 0.122361
-0.511629 0.225668 0.483066
-0.402010 -0.033931 0.322697
0.091989 -0.592450 0.092603
0.284029 -0.273320 0.073554
-0.090904 -0.102205 0.133924
-0.074466 -0.136100 0.103337
-0.124515 0.346495 -0.159091
0.021801 -0.144285 -0.353836
0.022325 -0.131562 0.143043
-0.115997 0.060395 -0.086082
0.056674 -0.124382 -0.282656
-0.040022 0.062653 -0.452188
0.125736 -0.363160 -0.137493
-0.035764 0.476632 -0.056683
0.340209 -0.519363 0.140443
0.128619 0.429144 -0.049535
0.201338 0.034343 0.183718
-0.159816 -0.041271 0.131007
0.191386 0.461985 -0.389604
0.544544 0.269056 -0.061209
-0.011814 -0.035481 -0.395702
-0.203428 0.475595 -0.321131
-0.651846 -0.249243 0.378709
-0.500076 -0.191099 0.224403
-0.649519 0.026200 0.473919
-0.536152 -0.156590 0.216753
-0.182070 0.350970 -0.376143
0.084655 0.523366 -0.037653
-0.276735 -0.010106 0.000816
-0.275412 -0.380395 0.297857
-0.234815 0.301690 -0.073012
0.188544 0.087947 -0.103598
-0.058039 -0.361603 0.062567
0.047949 -0.164850 -0.039430
0.262265 -0.509334 0.091124
0.108682 0.524609 -0.033590
-0.331818 0.519579 -0.384226
-0.636864 -0.195265 0.383480
-0.148763 0.257727 0.228353
-0.289654 0.595697 -0.577739
0.888215 0.273289 -0.126806
0.277856 -0.047235 0.051676
0.021109 0.618968 -0.560257
0.405311 0.274101 -0.025197
-0.017131 -0.018041 -0.268215
0.117515 0.050143 0.161496
0.134605 -0.357292 -0.195179
-0.122756 -0.356434 0.124185
-0.104554 0.288191 -0.246386
0.083967 -0.615610 0.099545
-0.100652 0.367416 0.056025
0.319490 -0.276548 0.094878
-0.307723 0.520105 -0.553872
0.358103 -0.477560 0.194176
-0.179785 0.378536 -0.320580
-0.264256 0.180084 -0.049369
0.055272 0.690330 -0.590873
-0.693142 -0.027633 0.417278
-0.162042 -0.194552 0.070797
0.224413 0.194399 0.010364
0.126659 -0.084879 -0.040985
-0.606085 0.019260 0.312443
-0.071920 -0.143923 -0.277403
-0.421724 0.260348 0.049741
0.949003 0.268152 -0.055186
-0.040167 -0.590096 0.102970
0.111725 0.498233 -0.017832
0.928759 0.152218 -0.077375
-0.363294 0.124365 0.402926
-0.149417 -0.569180 0.095313
0.690307 0.266622 -0.126151
0.165031 -0.177404 -0.048780
0.114271 -0.342694 -0.236462
0.036905 0.187679 -0.350820
-0.307857 -0.006544 0.019637
-0.133872 0.364029 -0.130302
-0.694041 -0.178520 0.427012
0.274484 0.232687 -0.078969
0.229775 -0.264944 0.095909
0.056955 0.504673 -0.471529
0.160939 -0.472829 -0.091286
0.136429 -0.355707 -0.075347
0.103876 -0.517709 0.041007
-0.255616 0.106186 -0.330578
-0.535160 0.057851 0.236379
-0.572836 0.128090 0.274402
-0.527740 0.137134 0.012265
0.017887 0.541174 -0.044965
-0.050316 0.136518 -0.361372
0.182559 -0.405957 -0.043217
-0.174272 -0.032595 -0.217318
-0.667363 -0.003716 0.389546
0.228671 -0.437546 -0.008117
-0.066410 -0.190383 0.035040
-0.228812 0.004328 -0.001823
0.167400 -0.218536 0.223027
-0.283661 0.057133 -0.081049
0.051014 0.753164 -0.614096
-0.122423 -0.197918 0.086964
-0.029643 0.194376 -0.071553
-0.051569 0.199851 -0.230280
-0.724787 -0.181219 0.403214
-0.455859 0.238185 0.057001
0.242478 0.055234 0.108023
-0.182782 0.387388 -0.334698
-0.289852 -0.334835 0.273523
0.658826 0.170141 -0.163734
-0.076105 -0.230290 0.087768
0.576146 0.220538 -0.112960
-0.061183 0.345147 -0.318868
0.074604 0.556190 -0.487856
0.011916 -0.181185 0.150888
-0.535797 0.036041 0.220008
0.197532 0.073356 -0.039299
-0.003831 -0.371250 0.038464
-0.149009 0.422128 -0.050777
0.176201 0.483664 0.058022
0.176825 -0.182510 -0.037278
0.052565 0.150766 -0.336879
-0.679325 0.019026 0.497688
0.152667 -0.028257 0.004829
0.049559 0.409336 -0.094655
0.072134 -0.615784 0.165065
0.890020 0.189762 -0.117098
-0.150196 0.219557 -0.337798
-0.635140 -0.191343 0.330329
0.102086 0.256860 -0.168903
-0.659831 -0.135868 0.308168
-0.663593 0.020487 0.462051
0.181976 0.086188 0.065547
0.292543 -0.393054 0.088667
0.293240 0.184117 -0.064449
-0.527367 -0.008202 0.185567
-0.053141 0.327199 0.197344
-0.231377 0.097798 -0.278241
0.020456 -0.516762 0.045014
-0.251036 0.581033 -0.308960
0.132010 -0.231776 0.204955
-0.302174 0.096689 -0.061894
-0.181635 0.367732 -0.022411
-0.303127 0.235322 -0.036093
-0.264896 0.225940 -0.370176
0.207024 -0.301292 0.045601
-0.505616 0.140693 0.250702
-0.090898 0.258347 -0.205719
-0.687570 -0.167547 0.433036
-0.452611 0.129516 0.273489
0.813008 0.218108 -0.072314
0.187780 0.378507 0.026185
-0.389076 -0.076258 0.285804
0.278214 -0.241521 0.137436
0.061864 0.329271 0.028497
0.230677 -0.546538 0.049223
-0.590518 -0.042802 0.251500
0.116032 0.570828 -0.454562
-0.224030 0.012170 -0.114219
0.350217 -0.381764 0.159509
-0.194056 -0.109196 -0.310606
-0.653272 -0.044008 0.323531
0.094128 0.261066 -0.278497
-0.237157 -0.274356 0.143556
0.068428 -0.498849 0.214588
-0.372043 -0.266950 0.366416
0.204273 -0.297479 0.053420
0.040026 0.716674 -0.594321
0.041953 -0.503446 0.034895
-0.000075 -0.023161 -0.266925
-0.201009 0.432927 -0.339314
0.115750 0.089585 -0.096850
-0.596649 0.048077 0.382823
0.049062 -0.012724 -0.313309
-0.624193 -0.278987 0.345612
-0.570196 -0.131815 0.268206
-0.320950 0.026915 -0.052654
-0.092158 0.619029 -0.457711
0.070642 -0.198845 -0.014208
-0.304852 0.372077 -0.415547
0.656246 0.263314 -0.131750
0.182806 0.058150 0.018078
-0.370532 -0.053465 0.399364
0.331101 0.412379 0.006901
-0.101020 0.259532 -0.241084
0.034331 -0.499729 0.036155
-0.039599 0.578039 -0.406294
-0.096063 0.251948 -0.264741
-0.763632 -0.080228 0.261017
-0.208606 0.585963 -0.601847
0.176146 -0.175742 -0.050515
0.310157 -0.285917 0.094053
-0.129303 0.423476 -0.362938
-0.063268 0.231089 -0.055037
-0.208090 0.320647 -0.373675
0.209127 0.038923 0.128492
0.199029 0.469289 0.073817
0.107313 0.256212 -0.267257
-0.363527 -0.268918 0.393661
-0.512488 0.222511 0.488262
0.104986 -0.454652 -0.063586
-0.506136 -0.010593 0.083347
-0.418760 -0.051484 0.161506
-0.175438 0.066011 0.012375
0.069049 0.317310 -0.005789
0.099506 0.330979 -0.030648
0.106535 -0.674101 0.257273
-0.494023 -0.221757 0.228179
0.273677 -0.774745 0.043013
0.737173 0.288231 -0.090882
-0.066296 -0.140091 0.011174
0.135888 0.562642 0.022423
-0.184812 -0.488183 0.101318
0.171864 0.015849 0.149052
-0.664488 -0.180172 0.389482
-0.022656 -0.359917 0.265408
0.535990 0.272718 -0.053308
-0.468104 -0.056246 0.022860
-0.443750 -0.043873 0.151640
0.132438 0.291156 -0.112611
-0.345818 -0.088535 0.079020
-0.582174 -0.090661 0.222122
0.101216 0.096791 -0.184949
0.574764 0.263097 -0.096098
-0.487352 -0.363521 0.398042
0.785922 0.137199 -0.201121
0.611142 0.207795 -0.134790
0.103848 0.796008 -0.688889
0.928441 0.180886 -0.089441
-0.020203 -0.334206 0.040993
0.328428 0.243506 -0.044617
-0.161288 -0.486996 0.088650
0.359134 -0.032824 -0.392336
-0.155408 0.224368 0.183573
0.375563 -0.532741 0.178355
-0.031483 0.266073 0.014590
-0.376631 0.255026 0.012789
0.137469 0.297771 -0.093709
-0.249575 -0.280902 0.153000
0.849972 0.299329 -0.105218
0.152583 0.144321 -0.124168
0.368837 -0.097218 0.032823
-0.596141 -0.160415 0.272878
0.146458 -0.399814 -0.184299
0.238922 -0.251925 0.099524
-0.274635 0.565622 -0.309043
0.718639 0.167461 -0.178077
-0.098156 0.248308 -0.193177
0.185552 -0.068384 -0.013808
0.429382 -0.277916 0.230308
0.340290 -0.349445 0.107369
-0.067318 0.292551 -0.307765
0.170815 -0.339165 0.020773
0.140003 -0.671362 0.087218
-0.675177 -0.010998 0.402090
0.048529 -0.017850 -0.318756
0.117145 -0.283991 -0.338951
0.095926 0.560874 -0.525495
-0.398360 0.021439 0.240192
-0.780344 -0.154513 0.407156
0.081240 0.011615 0.011416
-0.252291 -0.078763 0.214365
0.826287 0.194759 -0.165487
0.554804 0.314137 -0.046330
-0.111175 0.251669 -0.247353
-0.162920 -0.301753 0.174142
0.055316 0.013488 -0.150161
-0.086767 0.299997 -0.108961
-0.814097 0.021845 0.315979
-0.183837 0.377280 -0.065276
-0.133365 0.312052 -0.006154
0.413599 0.438838 0.065543
-0.265815 -0.373762 0.293424
-0.562736 -0.109328 0.385582
0.987693 0.189432 -0.024133
0.226165 -0.810664 0.181831
0.151386 0.366666 -0.039650
0.088612 -0.579632 0.129773
0.993363 0.196687 -0.009954
0.125013 -0.365508 -0.145568
0.189347 -0.305762 0.263256
-0.646612 -0.058043 0.313197
-0.138482 0.421009 -0.419560
-0.588160 -0.129539 0.372556
-0.432053 0.281562 0.049012
-0.530892 -0.200013 0.224427
-0.807213 0.043755 0.355128
0.003254 -0.020704 -0.370949
-0.016427 -0.053741 -0.144870
0.078240 0.021514 -0.153899
0.050600 -0.005375 -0.327291
-0.400418 -0.290166 0.382216
-0.203209 0.094796 -0.300549
0.052412 -0.109579 -0.304025
-0.102741 0.074356 -0.077770
0.846714 0.079846 -0.085206
0.286308 0.278907 -0.111126
0.076394 -0.114210 -0.310145
0.045434 -0.287504 0.145556
-0.031209 0.263534 -0.118385
-0.623991 0.142652 0.394409
0.808031 0.117334 -0.176891
-0.185299 -0.406681 0.336595
-0.338654 -0.099110 0.417548
0.788446 -0.043176 0.011738
-0.180204 -0.324514 0.216064
-0.078843 -0.593089 0.076152
-0.744649 -0.074989 0.265118
0.106087 0.787957 -0.699480
-0.381752 0.121257 0.313635
-0.556646 -0.344014 0.392778
-0.089762 0.286881 -0.369161
0.724322 -0.176140 0.012315
0.639793 0.069389 -0.139301
-0.442791 -0.049490 0.129106
0.180923 -0.468638 0.004132
-0.430753 -0.234111 0.254877
0.128563 -0.445942 -0.064197
0.243387 -0.353930 -0.069347
0.342993 0.005342 -0.049900
0.358292 0.384095 0.019409
0.005714 -0.430495 0.013901
-0.802079 -0.116517 0.411357
-0.263194 0.471215 -0.436758
-0.205301 0.383837 -0.190714
-0.372819 -0.048388 -0.076713
-0.143870 -0.483793 0.077813
-0.254344 -0.348019 0.228303
-0.210877 -0.404707 0.323929
-0.726778 -0.127440 0.286954
-0.507348 0.127601 0.248873
0.057605 -0.294271 0.134710
0.079885 0.207055 -0.008745
-0.131048 0.265695 -0.360755
-0.091964 0.232084 -0.235495
-0.312460 0.517175 -0.533030
0.015894 -0.096314 -0.125930
-0.374710 0.075569 0.300297
0.794858 -0.100402 0.018914
0.119569 0.254281 -0.164876
0.004205 0.479197 -0.462916
0.036810 -0.573557 0.075173
-0.532629 -0.151443 0.206487
0.471271 -0.382879 0.226433
-0.311620 0.528658 -0.522736
-0.078556 0.653979 -0.626210
0.778465 0.083035 -0.204999
0.244690 -0.286751 0.071283
0.824855 0.168081 -0.161717
-0.172979 -0.013314 -0.232845
0.140161 0.521738 0.027401
0.192872 0.173401 -0.036774
0.713355 0.358282 -0.070028
-0.516956 -0.353122 0.349310
0.093612 -0.016863 -0.008862
0.030241 -0.105877 -0.048305
-0.032781 0.150851 -0.188239
-0.350890 0.529179 -0.534665
-0.525051 -0.369252 0.392246
-0.136646 0.315343 -0.003705
0.150156 0.101910 -0.136486
-0.247568 0.442210 -0.435824
-0.514228 0.197868 0.328163
-0.036375 0.577939 -0.038176
-0.243053 0.548046 -0.604028
-0.094279 -0.439835 0.074814
0.168929 -0.199275 -0.002187
-0.480082 0.191092 0.325486
-0.663050 -0.097832 0.247386
-0.037320 0.240394 -0.060765
-0.195721 -0.174492 0.097666
-0.621264 -0.310133 0.422701
-0.133674 0.358648 -0.130376
0.545272 0.248057 -0.079819
-0.216566 0.568336 -0.601551
-0.375806 0.020538 0.005873
0.708813 0.334736 -0.089402
-0.732372 -0.182638 0.394601
0.041340 -0.004576 -0.183500
0.067581 -0.186858 -0.021780
-0.593753 0.029895 0.316275
0.073838 -0.583855 0.258806
-0.680026 0.066541 0.525315
0.135058 -0.427695 -0.055390
-0.485358 0.005552 0.194541
-0.072189 -0.019930 -0.105698
-0.060307 0.077447 -0.065349
-0.680209 -0.027082 0.428005
0.592241 0.114479 -0.135361
-0.248402 -0.378330 0.302729
0.399413 0.154172 -0.103474
-0.048072 0.048609 -0.102925
0.754540 -0.119230 -0.064114
0.098189 -0.345348 0.254707
0.085881 -0.670727 0.128027
-0.122845 0.494059 -0.334644
0.973194 0.246079 -0.061596
0.108716 0.408287 -0.075422
0.110663 -0.059152 -0.028775
0.114976 -0.362067 -0.122388
0.230887 -0.307944 0.037296
0.180022 -0.462815 -0.008009
-0.617894 0.185810 0.447234
-0.284457 0.277600 -0.300149
0.126964 0.602529 -0.398974
-0.257290 -0.059538 0.222261
-0.354666 0.585385 -0.229497
-0.598061 -0.292290 0.501986
-0.389305 -0.012451 0.257692
0.208453 0.129264 0.026430
0.042022 0.564136 -0.035854
-0.023165 -0.002148 -0.136677
0.164586 -0.764288 0.220559
0.174969 -0.200617 -0.003816
-0.255127 -0.040693 0.237261
-0.133053 0.141263 -0.322763
-0.506164 0.231290 0.464678
-0.588470 -0.148193 0.265855
0.184184 0.488876 -0.514712
-0.075085 0.354157 -0.359725
0.256731 0.388616 -0.012717
-0.632556 -0.213671 0.436462
0.172988 0.596719 0.065873
-0.498816 -0.376357 0.418086
-0.390013 0.278124 0.020204
-0.627166 -0.217328 0.307989
-0.608285 -0.143519 0.304221
0.051070 0.314312 0.043331
0.047933 -0.049520 -0.236903
0.000486 -0.059137 -0.323324
0.043169 -0.073762 -0.017461
-0.036292 0.285223 -0.102477
0.270899 -0.556861 0.099655
0.073547 -0.590122 0.197518
0.242011 -0.158454 -0.002709
0.269804 0.028342 -0.050177
-0.284368 -0.313090 0.234443
-0.100117 -0.301380 0.127185
-0.762113 -0.023687 0.242185
-0.604881 0.198442 0.456365
-0.560937 0.011551 0.169706
0.344074 -0.353042 0.121061
0.768876 0.327074 -0.047458
-0.038283 0.478651 -0.401374
0.163432 -0.782879 0.166972
0.818575 0.046276 -0.083015
-0.044730 0.031408 -0.269614
-0.619858 -0.150488 0.324443
-0.069033 0.284742 -0.301899
0.298022 -0.364957 0.065154
-0.247557 0.293079 0.011487
0.005842 0.007428 -0.146684
0.013508 0.243030 -0.279985
-0.341286 0.308287 0.036082
0.395727 -0.571891 0.122769
0.301912 -0.462108 0.117011
-0.063454 0.302618 -0.299094
-0.330533 0.562926 -0.218377
0.016863 -0.110874 0.146897
0.974809 0.298996 0.048452
-0.181821 -0.336319 0.165213
0.199340 -0.091311 0.013544
-0.048513 0.621629 -0.557851
-0.046762 0.661697 -0.437225
0.313730 0.233264 -0.099042
0.106596 -0.295500 -0.067287
0.614234 0.046135 -0.301298
-0.339344 -0.078786 0.366229
-0.095457 -0.195017 0.038934
-0.512246 -0.094375 0.145269
0.311650 -0.793262 0.038246
0.122806 -0.013258 0.002117
0.253790 -0.055075 0.070344
-0.065152 0.141319 -0.362488
0.013243 -0.001427 -0.154531
-0.669444 -0.044208 0.221394
-0.218716 0.338972 -0.097900
-0.035651 0.256222 -0.121731
-0.325016 0.518644 -0.385110
0.078195 -0.075997 -0.304041
-0.048361 -0.323207 0.077813
-0.145265 0.214406 0.201319
0.013424 -0.096016 -0.124145
0.837837 0.280691 -0.132905
-0.414781 0.045239 0.237902
-0.247270 -0.013327 0.242457
-0.307913 0.512315 -0.531400
-0.114608 -0.226685 0.105995
0.776742 0.077463 -0.125459
0.109339 -0.556811 0.071162
-0.445944 0.203024 0.389889
-0.620043 0.197711 0.511076
0.930662 0.120892 -0.061791
0.076966 0.753916 -0.675808
0.922735 0.230123 -0.097944
-0.222398 -0.322838 0.175001
-0.263142 -0.372554 0.243137
0.015812 -0.014923 -0.177756
0.260874 0.013194 -0.029143
0.534965 0.132291 -0.085376
-0.014473 0.166283 -0.145255
-0.669781 0.036159 0.507019
-0.632376 0.169750 0.424524
-0.645650 -0.224663 0.331790
0.296702 -0.426417 0.111691
-0.478705 0.113268 0.234055
0.305357 -0.274893 0.106937
-0.134347 0.355551 -0.016910
0.775003 0.015862 -0.115994
-0.281727 -0.064372 0.062878
0.036204 -0.164078 -0.388677
-0.042044 0.309492 -0.079762
-0.009942 0.648528 -0.586198
0.374092 -0.293747 0.146955
0.183226 -0.261572 0.150710
0.239694 -0.242869 0.043897
0.287710 0.427410 -0.000448
0.701569 0.166878 -0.166894
0.016957 -0.187899 0.005576
0.321844 -0.470989 0.142430
0.284662 0.123393 -0.066000
-0.626734 0.055722 0.452320
0.103121 -0.277568 0.215775
-0.201509 -0.527809 0.123190
-0.085813 -0.145696 -0.216627
-0.570307 -0.113813 0.390214
0.800208 0.316471 -0.021176
0.053858 0.065976 -0.279695
0.062047 -0.586695 0.228557
0.225958 0.023704 0.169572
-0.293445 -0.038242 0.312769
-0.212937 -0.420354 0.358068
0.006243 -0.078321 -0.336476
0.135002 0.305218 -0.149483
0.081241 0.524955 -0.059730
0.184049 -0.327529 0.016649
-0.794637 -0.067110 0.426081
-0.668612 0.102237 0.436425
0.203553 0.211594 0.073692
0.758451 0.030059 -0.156978
-0.052771 0.076932 -0.437023
0.390916 0.413874 0.034476
0.278358 -0.506407 0.096716
-0.080622 -0.031784 0.062856
0.281814 0.266183 -0.069156
-0.227737 0.269482 -0.010490
0.688913 0.348410 -0.084588
-0.067989 0.357595 -0.327186
-0.061204 0.506590 -0.042279
0.081269 0.508303 -0.056263
0.441285 -0.052203 -0.020736
-0.170625 -0.456337 0.092536
0.229862 -0.805374 0.134727
-0.342997 0.253542 -0.007957
-0.045193 0.522546 -0.404272
0.360655 -0.402981 0.195168
0.066012 -0.543997 0.213637
-0.255182 -0.070383 0.198318
0.239573 -0.812344 0.100826
0.433238 -0.120768 0.058896
-0.056612 0.220517 -0.296655
-0.076763 -0.075853 -0.135722
0.037934 -0.128482 -0.290513
0.847484 -0.052213 0.072190
-0.467411 -0.352816 0.471625
0.167407 0.104181 0.049251
0.076126 0.628360 -0.491222
-0.365561 0.113994 0.402248
0.002030 0.045956 -0.164678
0.658820 0.016742 -0.135698
0.347518 -0.399288 0.129748
-0.084868 -0.144594 -0.283777
0.287007 0.738264 -0.411311
0.089367 0.462109 -0.072753
0.077021 -0.609147 0.285337
-0.472571 0.048842 0.209294
-0.496457 -0.058550 0.054074
0.064280 0.119163 -0.414305
-0.637496 -0.145050 0.314766
0.188255 -0.178614 -0.038950
-0.574772 -0.116746 0.421714
-0.046792 0.332340 -0.011587
-0.047064 -0.126281 0.112954
0.236076 -0.337283 -0.048386
0.830967 0.315293 -0.108878
-0.266917 -0.083900 -0.191083
0.856111 0.042222 0.031922
-0.169536 0.124438 -0.264828
0.093878 0.477406 -0.068088
-0.043736 0.633878 -0.562158
0.038039 0.678970 -0.576499
0.093556 -0.322342 0.153095
-0.370368 0.047553 0.273432
0.768041 0.332013 -0.060331
0.986303 0.229265 -0.042114
-0.182693 -0.473409 0.093710
0.129775 0.022670 0.047454
0.430729 0.261252 0.118305
0.198461 0.468786 0.055149
-0.757358 -0.138928 0.313544
0.962389 0.278394 -0.014048
0.219542 0.386105 -0.022469
-0.622850 -0.066331 0.203129
-0.140197 0.282454 -0.339588
0.148927 0.414965 -0.028034
-0.468600 -0.358454 0.442185
-0.503519 -0.091446 0.116772
0.230794 0.041912 0.164299
-0.471688 -0.020119 0.181693
0.911373 0.311365 -0.081846
-0.326587 0.550011 -0.395347
0.250181 0.397648 -0.015416
-0.058758 -0.400865 0.034186
-0.601321 0.141841 0.309126
0.114683 -0.291667 -0.339279
0.247126 -0.177969 -0.000857
0.239683 0.048390 0.131206
-0.191374 0.371429 -0.009839
-0.118009 0.264277 -0.201932
-0.678314 -0.034740 0.214831
-0.126442 -0.250384 0.202983
-0.057956 0.503287 -0.036320
-0.153999 0.362865 -0.198422
0.063981 -0.414134 -0.014446
-0.310253 -0.338178 0.274480
-0.123330 0.477298 -0.449305
0.703527 0.339496 -0.081772
0.103618 0.027791 -0.123581
-0.343749 0.006581 0.304144
0.054007 0.722834 -0.502681
0.074099 -0.095115 -0.270124
0.070493 0.536426 -0.044571
-0.119788 0.489262 -0.369819
-0.104945 0.198373 0.188348
0.136679 -0.421925 -0.031231
0.809110 0.138846 -0.185600
-0.606491 0.096402 0.332316
0.037041 0.620460 -0.418014
0.155716 -0.140134 -0.126021
0.309301 0.205779 -0.058454
0.339979 -0.312027 0.111227
-0.194632 0.399929 -0.054829
-0.288785 -0.357378 0.308128
0.228527 -0.124274 -0.008015
-0.643083 -0.244398 0.352906
-0.340277 0.050494 -0.037021
-0.376649 -0.034057 0.101377
-0.447948 -0.071878 0.222628
0.429062 -0.413558 0.228108
-0.094841 -0.136676 -0.420063
0.500548 0.004044 -0.332447
-0.232115 -0.502464 0.137100
-0.089838 0.513394 -0.330920
-0.421850 -0.036496 0.228417
-0.622757 0.152508 0.369440
0.772789 0.253140 -0.164174
-0.274936 0.398261 -0.372449
-0.318098 0.515473 -0.429809
-0.292204 0.696953 -0.222590
-0.084490 0.630669 -0.390420
-0.694129 -0.028756 0.462135
-0.223723 -0.272446 0.146948
-0.613090 -0.145894 0.447384
0.275687 0.006108 -0.028802
-0.269778 0.531541 -0.359165
-0.339547 -0.067695 -0.122216
-0.007161 0.326802 -0.013453
-0.059143 0.379738 0.173808
-0.622695 -0.263398 0.355009
0.638347 0.013570 -0.120270
0.488592 0.207894 -0.081123
0.068681 0.601488 -0.479598
-0.175782 -0.371545 0.245022
0.180320 -0.100650 -0.034994
-0.558866 -0.232183 0.282791
-0.029586 0.271038 -0.275015
-0.005999 -0.399709 0.014072
-0.389172 -0.047018 0.134718
0.227113 -0.281429 0.065446
-0.044950 -0.222394 0.068021
-0.275006 -0.178771 0.266698
0.188731 0.530449 -0.335489
-0.414796 0.172355 0.349052
-0.312995 0.558217 -0.519671
-0.641838 0.004902 0.335909
0.326563 -0.223220 0.067411
0.192175 -0.469973 -0.004842
0.261586 -0.564956 0.032291
-0.148071 -0.409942 0.328907
0.007774 -0.512261 0.043758
-0.041583 0.241399 -0.231274
-0.553004 -0.337572 0.358046
0.381036 0.380557 0.031103
-0.303344 -0.039799 0.322581
0.896739 0.173041 -0.127473
-0.182151 -0.168408 0.098863
-0.244115 0.603849 -0.664338
0.281252 0.368283 -0.088764
-0.523699 0.029284 0.209188
-0.113959 0.608981 -0.371888
0.000174 -0.208671 0.044755
0.485603 -0.364892 0.213259
0.814082 0.303119 -0.119253
0.969337 0.122642 -0.032422
0.745058 -0.101369 -0.081430
0.208285 -0.322267 -0.076938
-0.453844 -0.338620 0.369557
-0.293675 -0.022049 0.023839
-0.261129 0.592627 -0.604739
0.487179 -0.357014 0.210859
0.179074 -0.196869 -0.034678
-0.209097 -0.556608 0.138050
-0.016823 -0.284251 0.123555
-0.623836 0.119325 0.365869
-0.509422 -0.019220 0.109528
-0.133866 0.369507 -0.134725
0.025036 -0.245157 0.106314
0.030753 -0.518296 0.047879
0.123676 -0.363986 -0.097787
0.145674 -0.766959 0.125920
-0.134316 -0.207881 0.083447
0.027863 -0.123338 -0.255713
0.116252 -0.080822 -0.037824
-0.048465 0.362755 -0.037452
-0.381431 -0.045090 0.348102
-0.248790 -0.384163 0.262714
0.940395 0.224906 -0.095214
0.160560 -0.031238 0.003040
0.900576 0.064999 0.026589
-0.429861 0.075251 0.226552
0.176591 0.204454 -0.012073
0.734141 0.139948 -0.186349
0.245889 0.148229 -0.074078
0.138044 -0.745834 0.216068
-0.194515 -0.490520 0.095030
0.856050 0.187379 -0.147576
-0.011590 0.192855 0.106690
0.012142 0.087257 0.124793
0.323994 -0.293644 0.108968
0.285902 -0.211519 0.197059
0.058366 0.183423 -0.099205
0.011745 -0.357328 0.036486
0.415478 -0.374400 0.233893
-0.545788 -0.350039 0.380258
-0.062061 -0.126886 -0.361413
0.238708 -0.118538 0.011433
0.516325 0.147022 -0.054893
0.552030 0.234390 -0.103731
-0.184275 0.340831 -0.195003
-0.272964 0.016337 -0.067574
-0.514804 -0.007670 0.165128
0.008611 -0.053351 -0.293321
-0.003872 0.553169 -0.395851
0.364926 0.197641 0.142245
0.041538 0.565697 -0.564819
0.275156 0.000139 0.138578
-0.165958 0.373395 -0.207188
-0.633029 -0.207790 0.428784
-0.116788 0.301550 -0.374391
-0.579591 0.083703 0.268141
0.137468 0.499422 0.001248
-0.412164 0.128684 0.304110
0.065584 0.751750 -0.636877
0.029338 0.657910 -0.545645
0.119724 0.348412 -0.085520
0.113131 -0.149550 -0.243955
0.126572 -0.294306 -0.045863
-0.034709 -0.070107 -0.137551
0.038113 -0.508418 0.040544
0.217399 0.038233 -0.014353
-0.213867 0.146533 -0.044796
-0.042980 0.205015 -0.168178
0.072401 -0.410047 -0.011620
-0.038332 -0.308424 0.182574
-0.501897 0.150732 0.255868
-0.470455 -0.032447 0.136382
-0.609200 0.163694 0.333224
-0.273223 0.275504 -0.275981
-0.116237 -0.468492 0.061545
0.317304 -0.791378 0.038074
0.239514 -0.041429 0.037561
-0.463804 0.142031 -0.006581
-0.205323 0.011372 0.201050
-0.302084 0.048694 -0.069381
0.009021 0.507897 -0.060230
0.042274 -0.046780 -0.210723
-0.016837 -0.116038 -0.117240
-0.015022 0.648882 -0.573307
-0.340134 0.055671 0.350330
0.158378 -0.546047 0.013645
0.018624 -0.318623 0.053752
0.161900 -0.761480 0.225707
0.073320 0.504314 -0.064940
-0.579230 0.216411 0.472139
-0.061409 -0.063650 -0.138024
0.175056 0.510939 0.053967
0.746525 -0.172855 0.043411
-0.552464 0.145353 0.034425
0.125223 -0.156501 -0.152687
0.037962 -0.065837 -0.368276
-0.125975 -0.132290 -0.419842
0.242749 -0.100447 0.025427
0.301736 0.738246 -0.389370
-0.539605 0.228090 0.467554
-0.310269 -0.114752 0.339471
0.060750 0.634731 0.025637
-0.251844 -0.304343 0.173395
0.954426 0.182196 -0.075977
0.640646 -0.109755 -0.052975
0.102627 -0.540073 0.091546
-0.337395 0.051598 0.385183
-0.560948 0.019037 0.220353
-0.503753 -0.012822 0.083125
-0.125768 -0.222802 0.118455
-0.309812 -0.125181 0.344561
-0.298751 -0.338987 0.275395
0.115889 -0.337892 0.250982
0.282839 -0.602990 0.081232
-0.229910 0.564089 -0.669176
-0.666355 0.129632 0.498225
0.089432 -0.491996 0.147298
0.007316 -0.105049 -0.371405
0.374544 -0.244159 0.102617
-0.143451 -0.218042 0.146358
0.290360 -0.306520 0.069124
0.107250 0.017976 0.223718
-0.515942 0.033242 0.048722
0.026907 0.540745 -0.365845
0.204015 0.054205 0.048653
-0.644198 -0.233310 0.345024
0.009344 -0.103584 -0.120183
-0.548683 -0.250605 0.290494
0.287339 -0.029035 -0.001860
0.921711 0.243722 -0.100342
-0.097304 -0.463347 0.069212
0.126934 -0.356395 -0.198442
0.449700 -0.312722 0.251932
-0.432145 -0.339595 0.394919
-0.303285 0.457912 -0.333851
-0.094777 -0.131895 -0.210391
-0.551126 0.091943 0.022703
-0.697568 -0.151607 0.315496
-0.016254 0.275113 -0.129128
0.804774 0.085065 -0.125729
0.117839 -0.152019 -0.179798
-0.004783 0.288927 -0.113169
0.347124 -0.269803 0.097240
0.011641 0.073041 -0.128755
-0.262260 0.221183 -0.036968
-0.080350 0.383766 -0.346358
0.187161 0.029842 0.155987
0.092486 -0.674787 0.139128
-0.418606 -0.303713 0.383949
0.198861 0.442405 -0.397306
0.220268 -0.458274 0.009472
0.427891 0.442722 0.060872
0.428476 -0.273895 0.231090
-0.008305 0.218496 -0.059865
-0.614365 -0.090405 0.222188
0.011164 -0.537226 0.057658
-0.084028 0.220286 -0.314825
0.069028 0.150586 0.083398
-0.803592 -0.124179 0.405789
-0.693787 0.004734 0.507215
0.243425 -0.535042 0.044622
0.794503 -0.152700 0.084847
0.047644 0.036681 -0.254096
0.717086 -0.166435 -0.014697
-0.558127 -0.104807 0.266370
-0.263492 -0.359052 0.222062
0.675633 0.123002 -0.190300
0.213961 0.055565 -0.046249
0.305324 0.013361 -0.051111
0.360210 -0.040556 -0.027690
-0.089756 0.623984 -0.454678
-0.542092 -0.134479 0.221962
-0.003996 -0.234416 0.155412
-0.288542 -0.172825 0.313570
0.472941 0.000334 -0.329404
-0.585656 -0.253984 0.310567
-0.585482 -0.159327 0.275905
0.280394 -0.028565 0.053429
0.068750 -0.125711 0.178129
0.133247 0.285631 -0.205793
0.025861 -0.572073 0.080559
-0.318521 0.593843 -0.521085
-0.424744 -0.329802 0.390362
-0.226509 -0.395131 0.290919
-0.085914 0.011087 -0.101576
0.122971 0.290751 -0.241105
0.031613 0.607304 0.004616
-0.223434 -0.287198 0.150566
-0.358859 -0.249075 0.426279
0.301088 0.112689 -0.060269
-0.262441 0.556369 -0.517127
-0.076743 -0.334859 0.078755
-0.593826 -0.304983 0.356034
0.022424 0.522686 -0.367649
-0.261509 -0.279183 0.151764
-0.325450 -0.094436 0.091465
-0.335686 -0.154208 0.078517
-0.186385 -0.412450 0.134320
0.086291 0.512602 -0.043957
-0.271901 -0.347396 0.213602
0.109150 -0.578403 0.078268
-0.813405 0.002125 0.305896
0.950517 0.257269 -0.060139
-0.241159 -0.054547 0.048146
0.196087 0.472342 0.057676
-0.146811 0.459220 -0.403638
0.185987 -0.093670 -0.026006
-0.000811 -0.089587 -0.376492
-0.220040 0.324759 -0.110555
0.102070 0.135379 -0.147007
0.271523 -0.440128 0.059115
-0.817227 -0.022610 0.385117
-0.552394 -0.238868 0.272564
-0.590039 0.082611 0.365321
0.060705 -0.571173 0.254541
0.097646 0.778388 -0.697662
